# .PCD v0.7 - Point Cloud Data file format
VERSION 0.7
FIELDS x y z rgb
SIZE 4 4 4 4
TYPE F F F F
COUNT 1 1 1 1
WIDTH 1129
HEIGHT 1
VIEWPOINT 0 0 0 1 0 0 0
POINTS 1129
DATA ascii
-1.2154713 0.14924459 0.29292509 2.1482305e-38
0.53581727 0.15689784 0.28871971 1.6223921e-38
0.55248868 0.15400855 0.29059094 1.188891e-38
-1.2677811 0.16498017 0.28811845 2.1116046e-38
-1.2479081 0.16807973 0.28673229 2.0837297e-38
-1.2272358 0.17145613 0.29590267 2.2035118e-38
-1.2134461 0.16513142 0.2939766 1.8163624e-38
-1.1865081 0.17894033 0.29363337 2.3509886e-38
-1.171418 0.17402574 0.29516482 2.3509886e-38
0.53293067 0.17534852 0.29378191 1.5209765e-38
0.54965192 0.17402543 0.29168624 1.2350256e-38
-1.2653623 0.19213305 0.28735465 2.065399e-38
-1.248999 0.19294445 0.2904399 2.0836937e-38
-1.2338159 0.18546462 0.29092818 1.9730589e-38
-1.2172923 0.19750468 0.29458082 2.3509886e-38
-1.187315 0.18866834 0.29260576 2.3417691e-38
-1.1770865 0.18765625 0.29761028 2.3509886e-38
0.53284812 0.19273235 0.29417861 1.4564761e-38
0.55081362 0.19178797 0.29074797 0
-1.2846706 0.21241409 0.28452271 1.9361448e-38
-1.2697567 0.21060176 0.28572002 1.8811157e-38
-1.2526457 0.20774817 0.29279727 2.1206081e-38
-1.2262542 0.21015909 0.28986102 1.6965797e-38
-1.2166518 0.21177761 0.29603463 2.3509886e-38
0.53141439 0.21604842 0.29559094 1.2814115e-38
0.54981917 0.21228869 0.29130465 0
-1.3052409 0.23079973 0.28486103 1.8533489e-38
-1.2697967 0.23274653 0.28817543 2.0101172e-38
-1.2480059 0.2330213 0.29068553 1.9177415e-38
-1.2344867 0.23124158 0.29389024 1.9915335e-38
0.5347665 0.23255952 0.297517 1.1892168e-38
0.55235386 0.22904581 0.2851308 0
-1.3075988 0.24814117 0.2814281 1.9086297e-38
-1.2703551 0.25549909 0.28556475 1.7979593e-38
-1.2536193 0.25111404 0.29369926 2.1020968e-38
0.5355134 0.25843918 0.2998113 1.1892519e-38
0.55189931 0.2522828 0.28795388 0
-1.3065231 0.26698083 0.28330979 2.0010068e-38
-1.2905179 0.26748532 0.28814375 1.8717511e-38
-1.2680695 0.27278563 0.28839245 1.6781404e-38
-1.2561665 0.27927119 0.29025555 2.083694e-38
0.55039459 0.26834971 0.28751263 0
-1.3094763 0.29314315 0.28662461 2.0195537e-38
-1.2905207 0.29297161 0.28861484 1.6229316e-38
-1.2685817 0.28932509 0.29785469 1.5582502e-38
-1.259129 0.29520375 0.29045898 1.7610811e-38
0.53887373 0.29248628 0.29861832 0
0.54868627 0.28836328 0.2892186 0
-1.3038435 0.31623468 0.28382987 1.7887031e-38
-1.2878108 0.31202024 0.28517908 1.5305916e-38
-1.2661078 0.31073666 0.29047847 1.5767258e-38
-1.2556405 0.30524477 0.29547346 1.6965801e-38
0.55087602 0.31018198 0.28948361 0
-1.3035133 0.33509746 0.28563106 1.42914e-38
-1.2891507 0.32458824 0.28598246 1.2725875e-38
-1.2755849 0.3312265 0.29621184 1.42914e-38
0.54857868 0.33091858 0.29105684 0
-1.3051194 0.34862292 0.28892198 1.5397393e-38
-1.2907923 0.34419745 0.29032344 1.4106649e-38
-1.2673335 0.34134471 0.29853749 1.6502295e-38
0.18863668 0.35084057 0.29204687 1.5028591e-38
0.21034177 0.35238028 0.28932276 0
0.2308408 0.35389972 0.29055756 0
0.24938004 0.35607058 0.28538981 0
0.53736329 0.35236567 0.29553461 0
0.55024117 0.35049284 0.28875843 0
-1.3084286 0.36849838 0.28640559 1.5026802e-38
-1.2913666 0.36672121 0.2904174 1.281699e-38
-1.2726401 0.3795335 0.29763696 1.3278696e-38
-1.2444588 0.36554831 0.28561532 1.3553838e-38
0.1885352 0.36825979 0.29169559 1.9916058e-38
0.53734612 0.37140077 0.28910065 0
0.54906934 0.36855739 0.28991169 0
-1.3315241 0.38965398 0.28203276 1.5303024e-38
-1.3110017 0.38917491 0.28681442 1.4749864e-38
-1.29259 0.38957185 0.29197836 1.3367276e-38
-1.2358183 0.38599902 0.28803009 1.2260575e-38
0.18842755 0.39049506 0.29308078 2.1298637e-38
0.2962032 0.38501841 0.29650223 0
0.30738169 0.3864347 0.28612202 0
0.33209059 0.38658953 0.28906593 0
0.35365131 0.38907176 0.28762162 0
0.37320492 0.38982737 0.29261583 0
0.39371845 0.3920911 0.29053971 0
0.40906131 0.39201939 0.29767799 0
0.42458171 0.39336243 0.28758731 0
0.44851059 0.39588138 0.29042238 0
0.46812946 0.39497477 0.28770566 0
0.48803359 0.39694184 0.29531398 0
0.51157093 0.3882384 0.28924787 0
0.53092474 0.38672152 0.2925922 0
0.54238033 0.39311212 0.28617865 0
0.19241123 0.40734479 0.28822634 2.1022411e-38
0.45124638 0.40037844 0.28887582 0
0.4741711 0.40186134 0.28286111 0
0.4925524 0.40221506 0.29222584 0
0.5083226 0.40162915 0.28842074 0
0.53174037 0.40386522 0.29000539 0
0.18644878 0.42636293 0.28971478 2.1943642e-38
0.18683171 0.44731182 0.28963 2.3141825e-38
0.18696795 0.47140682 0.28940427 2.1668137e-38
-0.72196281 -0.64324784 0.31261906 0
-0.71602428 -0.65338397 0.30483979 0
-0.72187966 -0.63650656 0.30888209 0
-0.7459237 -0.57093883 0.30053082 0
-0.96212399 -0.52720463 0.31143814 0
-0.95322698 -0.52771485 0.31403252 0
-0.92190212 -0.52501333 0.31346613 0
-0.96713603 -0.50847256 0.31477317 0
-0.95477271 -0.50982505 0.30914855 0
-0.92412859 -0.50649714 0.31811699 0
-0.91394901 -0.51193333 0.30397671 0
-0.96998197 -0.4925164 0.31256506 0
-0.9579643 -0.48623544 0.30862558 0
-0.91140997 -0.48575196 0.30523893 0
-0.96604455 -0.47130314 0.31366137 0
-0.95311135 -0.468052 0.30804312 0
-0.91325206 -0.46489146 0.30939075 0
-0.96516657 -0.45766169 0.31668228 0
-0.9525125 -0.45045614 0.30900145 0
-0.91626042 -0.44396681 0.31077915 0
-0.96525598 -0.42692897 0.3150416 0
-0.95517141 -0.42964602 0.3084695 0
-0.93746078 -0.42742947 0.30942559 0
-0.91330028 -0.42609283 0.30566204 0
-0.9497124 -0.41119194 0.30716655 0
-0.93269563 -0.40395769 0.30205902 0
-0.91987407 -0.40658364 0.31533438 0
-0.95045578 -0.39035299 0.30770332 0
-0.93553501 -0.38180056 0.30402642 0
-0.91310632 -0.39981282 0.30763584 0
-0.92831564 -0.20208156 0.31510657 0
-0.9193396 -0.20792174 0.31979725 0
-0.92883378 -0.19037022 0.30794358 0
-0.91184014 -0.18734433 0.30824202 0
-1.0897869 -0.16195217 0.30457109 0
-1.0753126 -0.16034694 0.3038536 0
-0.93255192 -0.16830666 0.31125292 0
-0.88825655 -0.1753543 0.31178474 0
-0.74952751 -0.17005111 0.31613141 1.9445688e-38
-0.72905296 -0.16964552 0.31120077 2.0184342e-38
-0.71223575 -0.17058441 0.31306985 2.1663442e-38
-0.69119179 -0.17434549 0.31801486 2.3509886e-38
-0.48246604 -0.16622324 0.3037824 1.9263476e-38
-0.47201151 -0.16599509 0.30920416 1.1885666e-38
-0.45701599 -0.17507619 0.31025651 0
-1.0872421 -0.14698243 0.30724889 0
-1.0722427 -0.14918029 0.30541649 0
-0.93205613 -0.15448916 0.3183226 0
-0.89506024 -0.14629427 0.31284752 0
-0.87355423 -0.15819964 0.30650318 0
-0.82287401 -0.15526515 0.30417436 0
-0.48448458 -0.15082949 0.30666444 2.1388307e-38
-0.47232926 -0.14972951 0.31076267 1.9820981e-38
-0.4453795 -0.14888948 0.31671059 1.4568351e-38
-1.1201066 -0.12449769 0.30207539 0
-1.1124864 -0.12258462 0.31434184 0
-1.0893681 -0.12532006 0.30270594 0
-1.0720392 -0.13146536 0.3111048 0
-1.0555714 -0.13199122 0.30461618 0
-0.89019954 -0.13131291 0.30777505 0
-0.87312454 -0.13106439 0.3113057 0
-0.50189936 -0.12792581 0.30612791 2.3509886e-38
-0.48580113 -0.12828295 0.31664366 2.3509886e-38
-0.47496238 -0.13459598 0.3113721 2.3509886e-38
-0.45408544 -0.13159145 0.31096113 2.3509886e-38
-1.112416 -0.10826051 0.3099089 0
-1.0988498 -0.10179003 0.31488025 0
-1.0692928 -0.11546622 0.30731168 0
-1.0547957 -0.11339904 0.30607015 0
-0.90142494 -0.10948534 0.31662852 0
-0.89165491 -0.10893153 0.30926624 0
-0.87248343 -0.11959628 0.31688291 0
-0.84360319 -0.10523307 0.31891614 0
-0.82826823 -0.10870875 0.30082026 0
0.53845048 -0.11314078 0.31131291 1.8246782e-38
0.54510736 -0.10768324 0.30389953 1.8616291e-38
-1.1279619 -0.083531916 0.30776268 0
-1.1087703 -0.086449295 0.31112537 0
-1.0382814 -0.099845409 0.30075416 0
-0.90567398 -0.087833047 0.31116715 0
-0.89237893 -0.094294511 0.30783677 0
-0.87795973 -0.098134905 0.31226075 0
-0.84197867 -0.091365442 0.3159447 0
-0.83392143 -0.093839273 0.30226195 0
0.53333163 -0.089773163 0.31159282 1.6036263e-38
0.54487175 -0.092270344 0.3075546 1.594372e-38
-1.1457546 -0.070981905 0.30609131 1.2355296e-38
-1.1249968 -0.069644026 0.30645019 1.2445687e-38
-1.1087029 -0.070837751 0.31075427 0
-1.0947362 -0.069576532 0.31399801 0
-0.90647715 -0.072278082 0.31325856 0
-0.89163893 -0.069234237 0.30876142 0
-0.87555146 -0.062162645 0.3156108 0
-0.84382963 -0.073563077 0.31815264 0
-0.8360405 -0.07001251 0.30260593 0
0.53328037 -0.062891304 0.31095386 1.7417753e-38
0.54540581 -0.068273589 0.30685064 1.7787634e-38
-1.1762156 -0.048301809 0.30184701 0
-1.1489202 -0.048968688 0.30974931 1.3366923e-38
-1.1337569 -0.048324604 0.30637053 1.6129538e-38
-1.1077298 -0.048082963 0.30999199 1.4654415e-38
-1.0916944 -0.053653821 0.31347629 1.419416e-38
-0.90093672 -0.054921418 0.31454623 0
-0.89288187 -0.048412457 0.31146118 0
-0.86985558 -0.054768305 0.30434981 0
-0.8371911 -0.053913429 0.30759224 0
-0.81722784 -0.04256922 0.30012959 0
0.53322792 -0.042681478 0.31085059 1.7693621e-38
0.54524875 -0.048186839 0.30698234 1.7879827e-38
-1.1884779 -0.031791519 0.3030256 0
-1.170418 -0.036662593 0.30758432 0
-1.1492603 -0.024906594 0.30906716 1.6868912e-38
-1.1305348 -0.02602602 0.31013471 1.6590156e-38
-1.1084909 -0.030283805 0.31019115 0
-1.0949206 -0.023898559 0.31231418 1.5484171e-38
-0.88828248 -0.031280316 0.31165498 0
-0.8699069 -0.027803851 0.31101316 0
-0.81804466 -0.026731223 0.3017897 0
0.53336525 -0.022487948 0.31132281 1.7693617e-38
0.54529721 -0.028157886 0.30716449 1.7787271e-38
-1.1680743 -0.010246873 0.30770677 2.1940755e-38
-1.1514986 -0.0078001507 0.30918485 1.83444e-38
-1.1320676 -0.0066831517 0.31282759 1.6406125e-38
-1.1076535 -0.0070786839 0.30543274 1.4379632e-38
-1.0966901 -0.0049042343 0.31489787 1.3275448e-38
-0.8855443 -0.016474484 0.31365836 0
-0.87681568 -0.011110222 0.30498001 0
-0.82492584 -0.013120174 0.30483693 0
0.53348887 -0.00218905 0.31112504 1.7508866e-38
0.54553723 -0.0078860587 0.3069948 1.760288e-38
-1.1838355 0.0048719011 0.30988729 1.7978868e-38
-1.1662719 0.0097765829 0.30407649 2.092444e-38
-1.1484667 0.011193505 0.31153384 1.8895767e-38
-1.1329597 0.012801617 0.3142488 1.5207223e-38
-1.1127425 0.012098081 0.30990452 1.4839887e-38
-1.0955175 0.01780572 0.31709209 1.6312855e-38
-0.84598184 0.014060799 0.31669843 0
-0.83420944 0.0037735924 0.3093552 0
0.53314471 0.017790562 0.31090546 1.7416669e-38
0.54610008 0.012124972 0.30688363 1.7326655e-38
-1.2044113 0.023781527 0.30345532 1.6227147e-38
-1.1863148 0.027205562 0.31509599 1.6411538e-38
-1.1688662 0.031276837 0.30783385 2.0095032e-38
-1.1498977 0.032615166 0.31111932 1.7972733e-38
-1.1381601 0.036098309 0.31142956 1.5760395e-38
-1.110677 0.031094274 0.3113358 1.4932447e-38
0.53519958 0.035596825 0.31325173 1.8524824e-38
0.54626131 0.032734416 0.30569041 1.6865322e-38
-1.2040892 0.043865792 0.30679083 1.8070699e-38
-1.1912036 0.046751551 0.30852497 2.2495012e-38
-1.1713161 0.04981691 0.31164151 2.0926602e-38
-1.151729 0.056393113 0.31282902 1.7700113e-38
-1.1153902 0.044937704 0.3121005 1.4105937e-38
0.53434706 0.05162191 0.31233081 1.8434083e-38
0.54548049 0.054657392 0.3092317 0
-1.2072171 0.066963427 0.30604094 1.7333856e-38
-1.188087 0.071183845 0.30857641 2.2587931e-38
-1.169165 0.071654081 0.31110296 2.0836938e-38
-1.1359587 0.070040613 0.30972308 1.8901189e-38
-1.1125748 0.069559723 0.3153089 1.9268529e-38
0.53426701 0.070614636 0.31318542 1.7516463e-38
0.54238582 0.068727352 0.30577651 1.7424989e-38
-1.2233114 0.082544029 0.30101013 2.3509886e-38
-1.2099818 0.086113408 0.31061265 1.982458e-38
-1.1911514 0.088555239 0.30970025 2.3509886e-38
-1.1650213 0.093830407 0.30948758 1.8993754e-38
-1.1302155 0.08196757 0.3054595 2.0744388e-38
0.53415936 0.092821546 0.31382629 1.6226086e-38
0.54397398 0.089966804 0.3043173 1.5950585e-38
-1.2237215 0.10124446 0.30313098 2.3509886e-38
-1.2099035 0.10562244 0.31134176 2.1021685e-38
-1.1876055 0.10883213 0.31020355 2.1666699e-38
-1.1661485 0.11322687 0.31665102 2.1297916e-38
-1.1410666 0.11486188 0.3007358 2.1574146e-38
-1.134612 0.11088517 0.31439602 2.1666344e-38
0.53422749 0.11166976 0.31216586 1.5211568e-38
0.54413235 0.1111152 0.305096 1.2537528e-38
-1.2290711 0.13117909 0.30807364 2.3509886e-38
-1.2106158 0.12875225 0.30814517 2.2680128e-38
-1.1872282 0.12969184 0.31452048 2.2311707e-38
-1.1675416 0.1299669 0.31625581 1.9915711e-38
-1.1332892 0.12600896 0.3080951 2.2126962e-38
0.53373504 0.13210817 0.31424749 1.4381086e-38
0.54567975 0.1321706 0.30345237 0
-1.2469947 0.14743748 0.30454478 2.3509886e-38
-1.2272319 0.15037572 0.30523348 2.3509886e-38
-1.2080104 0.1504893 0.30907649 2.2588291e-38
-1.1890841 0.14666544 0.30979443 2.1943286e-38
-1.1728327 0.14817321 0.3044132 2.2035484e-38
-1.1482433 0.14583686 0.30899605 2.3048912e-38
-1.1383842 0.1469295 0.31900567 2.3233662e-38
0.53378153 0.15084644 0.31397635 1.5210489e-38
0.54598719 0.15446407 0.30490845 1.2537894e-38
-1.2331333 0.1671481 0.30761018 2.3509886e-38
-1.2097847 0.16724272 0.30659577 2.221987e-38
-1.1938871 0.16937946 0.31491503 2.2312068e-38
-1.1532769 0.16661066 0.30834669 2.3417691e-38
-1.1374463 0.17220855 0.3132194 2.3509886e-38
0.53330064 0.17440513 0.3137356 1.308999e-38
0.54424185 0.17407432 0.30632389 0
-1.2437844 0.18827318 0.31030825 2.3509886e-38
-1.2254696 0.18868798 0.30526811 2.2311344e-38
-1.2111048 0.18926689 0.31029233 2.2219873e-38
-1.193767 0.18596539 0.31755972 2.3509886e-38
-1.1607671 0.18705814 0.3059901 2.3509886e-38
-1.1464677 0.18688866 0.31109685 2.3509886e-38
-1.136187 0.1855951 0.31498685 2.3509886e-38
0.53476554 0.19323604 0.31275284 1.1982912e-38
0.54538375 0.19598013 0.30583242 1.1799973e-38
-1.2452421 0.20838241 0.30774933 2.3509886e-38
-1.2295504 0.20964468 0.30853403 2.3509886e-38
-1.2115446 0.2096069 0.31511173 2.2773044e-38
-1.1953517 0.20434311 0.31996974 2.3509886e-38
-1.1722053 0.2106684 0.31434026 2.3509886e-38
-1.1592602 0.20873076 0.31432682 2.3509886e-38
0.5341804 0.21060084 0.31192181 0
0.54281688 0.21478491 0.30886465 0
-1.2654663 0.22312193 0.30434707 2.3509886e-38
-1.2483044 0.22806522 0.3091861 2.3234019e-38
-1.2273557 0.23068102 0.31222552 2.1482664e-38
-1.2121595 0.23063973 0.31628084 2.2773045e-38
-1.1718196 0.22834787 0.30923283 2.3509886e-38
0.53349096 0.23459579 0.31344837 0
0.54437786 0.22972685 0.30551356 0
-1.2643111 0.25035775 0.30745447 2.2957432e-38
-1.24709 0.24943042 0.31014583 2.0100449e-38
-1.2306304 0.25357953 0.31519505 2.2956715e-38
-1.2167909 0.25397539 0.31602228 2.3141825e-38
-1.1532764 0.25192854 0.31496841 2.3509886e-38
0.53353977 0.25087374 0.31340232 0
0.54477 0.24763989 0.30326724 0
-1.2656586 0.26989311 0.31364149 2.3325854e-38
-1.246614 0.27363518 0.31173676 2.0745457e-38
-1.2299966 0.27051818 0.31530172 2.3141465e-38
-1.203535 0.27894902 0.31030166 2.3509886e-38
-1.1861041 0.27425101 0.313025 2.3509886e-38
0.53487051 0.26832885 0.3111546 0
0.54378414 0.26626426 0.30426982 0
-1.290118 0.29187888 0.30708218 2.1759252e-38
-1.2661495 0.2985965 0.30955327 2.2773044e-38
-1.2450426 0.29181409 0.31299552 1.9363243e-38
-1.2331147 0.28830874 0.31156534 2.3049269e-38
-1.1933163 0.28965425 0.31047097 2.3509886e-38
-1.1794555 0.28898388 0.31730416 2.3509886e-38
0.52694941 0.28960991 0.31515059 0
0.5413335 0.28357208 0.30703688 0
-1.2440822 0.31462759 0.314421 2.1206075e-38
-1.2352657 0.30825993 0.31606063 1.6505899e-38
0.53322637 0.30873513 0.30931753 0
0.54340696 0.31080747 0.30669361 0
-1.2643919 0.33227074 0.30870754 1.8162899e-38
-1.2511982 0.328771 0.31065542 1.7702993e-38
-1.2363431 0.32852644 0.31660819 1.3092861e-38
0.53484774 0.3308672 0.31090823 0
0.54201698 0.33462194 0.30743593 0
-1.2827554 0.35428709 0.30093867 1.3829692e-38
-1.2675363 0.35593715 0.31192333 1.3553839e-38
-1.2581347 0.35404333 0.31513065 1.5397032e-38
0.17466055 0.35138446 0.3101663 1.8437671e-38
0.19529939 0.34841973 0.30980098 0
0.21026583 0.34928828 0.3101061 0
0.23039357 0.35102758 0.30932346 0
0.24411254 0.3559258 0.30428514 0
0.533705 0.34965438 0.31162035 0
-1.2880414 0.37109256 0.3071267 1.6227146e-38
-1.2715726 0.37315458 0.30843225 1.4013733e-38
-1.254293 0.36660659 0.31765381 1.4383239e-38
-1.2271308 0.36957598 0.30033171 1.3829702e-38
-1.2105783 0.37071443 0.31169328 1.4014092e-38
0.17383727 0.36821342 0.30975637 2.0561422e-38
0.18332125 0.37503141 0.31248468 1.8440932e-38
0.29018664 0.37965664 0.31917489 0
0.51724869 0.37271589 0.3156417 0
0.5291118 0.36966223 0.31248116 0
0.5406177 0.37401545 0.30140933 0
-1.282479 0.39181194 0.3083545 1.4103047e-38
-1.2695701 0.38794866 0.30785957 1.1985077e-38
-1.2570583 0.39521137 0.30607477 0
-1.2251837 0.39200273 0.30005586 0
-1.2117617 0.39082897 0.30456781 0
-1.1977878 0.38847587 0.3114869 1.17996e-38
0.17334923 0.39418882 0.31107682 2.2957072e-38
0.18357576 0.39440101 0.31056398 1.8533852e-38
0.29135633 0.3836287 0.31084624 0
0.31152886 0.38459519 0.30794346 0
0.33390772 0.38448423 0.30876505 0
0.34960651 0.38578963 0.30969527 0
0.36919731 0.38853651 0.30793539 0
0.3932907 0.38929904 0.31128752 0
0.41218811 0.38918456 0.31390101 0
0.43271089 0.39416611 0.30739543 0
0.45081902 0.39417529 0.30762768 0
0.46715379 0.39574745 0.3092775 0
0.48376638 0.39520532 0.31318891 0
0.51253676 0.39275911 0.31285104 0
0.5241316 0.38863885 0.3152774 0
0.17426753 0.41257438 0.30960512 2.2957794e-38
0.18436608 0.41323721 0.3096433 1.9087746e-38
0.49849093 0.40090835 0.31561983 0
0.51503164 0.40455702 0.3040112 0
0.17671606 0.42589793 0.30652535 2.2681207e-38
0.17493398 0.44109014 0.3087427 2.3509886e-38
0.17337754 0.46903828 0.31158775 2.341805e-38
-0.78037673 -0.72019672 0.32769665 2.3509886e-38
-0.76533705 -0.71462578 0.32734478 2.3509886e-38
-0.75374138 -0.70707953 0.32991669 2.2772679e-38
-0.90932536 -0.56566435 0.3364765 0
-0.89673388 -0.573888 0.33788198 0
-0.93262076 -0.5459556 0.32970652 0
-0.90533227 -0.54976189 0.33284372 0
-0.89723176 -0.55836642 0.33953381 0
-0.94528365 -0.52685052 0.32994208 0
-0.92638326 -0.52893007 0.33174703 0
-0.90803117 -0.53236169 0.33192131 0
-0.89774007 -0.52066898 0.33141547 0
-0.9622333 -0.5067203 0.3230193 0
-0.94958025 -0.50739121 0.32901087 0
-0.93337023 -0.50953341 0.33248737 0
-0.91560555 -0.51082516 0.33164507 0
-0.88990635 -0.51511168 0.33471429 0
-0.96466613 -0.48395252 0.32449278 0
-0.94930279 -0.48728958 0.32876173 0
-0.92983103 -0.49030966 0.3264339 0
-0.91676557 -0.49197423 0.33636802 0
-0.96724284 -0.46695358 0.3284567 0
-0.94875491 -0.46537957 0.32876024 0
-0.93005961 -0.47114417 0.33497378 0
-0.96656418 -0.44528681 0.32777616 0
-0.94932622 -0.44892862 0.33113661 0
-0.93799222 -0.45083362 0.33427051 0
-0.96815091 -0.42989713 0.32900268 0
-0.9511593 -0.43016642 0.33353969 0
-0.93745965 -0.42948747 0.33567196 0
-0.98248231 -0.40589967 0.33059013 0
-0.9691785 -0.40864378 0.33050075 0
-0.95243871 -0.40784997 0.33525249 0
-0.93562311 -0.41357064 0.3339856 0
-0.95424116 -0.39203361 0.33383527 0
-0.96042192 -0.21983343 0.33548641 1.4643949e-38
-0.95031637 -0.20394997 0.33448952 0
-0.92797291 -0.20455943 0.3307904 0
-0.91049969 -0.20311356 0.33204833 0
-0.94930363 -0.18863924 0.33193237 0
-0.93096501 -0.19151032 0.33108428 0
-0.91238439 -0.19070694 0.33815491 0
-0.69785821 -0.18082416 0.33754307 2.3509886e-38
-0.67384475 -0.18321458 0.33493823 2.3509886e-38
-0.94824362 -0.17236529 0.33327433 0
-0.93554962 -0.16548067 0.33100891 0
-0.74810368 -0.17002465 0.32723242 1.6590143e-38
-0.72832876 -0.17073365 0.33217204 1.9540774e-38
-0.70831573 -0.17268619 0.32749444 2.2032221e-38
-0.68862188 -0.17099492 0.32656157 2.3141463e-38
-0.67687088 -0.16929467 0.33242884 2.3509886e-38
-0.49386901 -0.17055449 0.33048362 0
-0.47265929 -0.16274877 0.32172439 0
-0.91156793 -0.14627838 0.33375016 0
-0.8921234 -0.14805964 0.33012903 0
-0.69721597 -0.14259797 0.33980355 1.446711e-38
-0.48790792 -0.15434158 0.32624593 2.3509886e-38
-0.45841676 -0.14381462 0.32466859 1.7790513e-38
-1.0973547 -0.12403574 0.33264253 0
-0.9065643 -0.12973894 0.3288883 0
-0.89176649 -0.12509522 0.33117074 0
-0.4684836 -0.13371083 0.32507992 2.0928056e-38
-0.45831358 -0.12881477 0.33700097 2.2127317e-38
-1.0884113 -0.10692398 0.32792604 0
-0.90721995 -0.11064013 0.3298586 0
-0.89465898 -0.10744878 0.32766867 0
-0.86635482 -0.1191919 0.33074641 0
-0.85604537 -0.1116917 0.33565593 0
0.52905536 -0.10532575 0.32716328 1.7046454e-38
-1.087271 -0.092511192 0.32467431 0
-1.067019 -0.092732914 0.33613101 0
-0.92077422 -0.093115672 0.33920395 0
-0.91316366 -0.08848574 0.33111277 0
-0.89254868 -0.089952767 0.33096212 0
-0.85399222 -0.093549624 0.33436742 0
0.51792032 -0.09075965 0.3261283 1.5391267e-38
0.53047323 -0.089654759 0.33075777 1.6774197e-38
0.54098094 -0.091053776 0.32025245 1.4288539e-38
-1.1062105 -0.07282605 0.32454342 0
-1.0865319 -0.067955166 0.33077723 1.225985e-38
-1.0747166 -0.069387518 0.32910535 0
-1.0563399 -0.078752361 0.33105701 0
-0.90900129 -0.068167858 0.32706556 0
-0.89293379 -0.070615225 0.32611081 0
-0.85611057 -0.066907585 0.33474803 0
0.51841223 -0.062374644 0.32562011 1.6680559e-38
0.53026271 -0.066690378 0.33086023 1.8155688e-38
0.54028827 -0.064785525 0.32049331 1.5762943e-38
-1.1500071 -0.042747915 0.32034481 2.3417331e-38
-1.1313696 -0.051461436 0.32699081 1.3276531e-38
-1.1118491 -0.048252717 0.328401 1.6961106e-38
-1.0908434 -0.051371545 0.33386186 1.6775633e-38
-1.072561 -0.056087799 0.3319498 1.5115753e-38
-0.90498245 -0.052482557 0.32629675 0
-0.89842463 -0.054673843 0.32443744 0
-0.85614425 -0.051354945 0.33035636 0
0.51852363 -0.042521954 0.32556358 1.6772394e-38
0.53155035 -0.046837028 0.33053297 1.7971661e-38
-1.1493636 -0.021373972 0.3207992 0
-1.1301544 -0.029530276 0.32949769 1.991281e-38
-1.1073439 -0.027823741 0.32937357 1.8711016e-38
-1.0919819 -0.031791195 0.33525664 1.7327358e-38
-0.91019392 -0.036084846 0.33631378 0
-0.89437288 -0.026339175 0.33222476 0
-0.87308085 -0.030558664 0.33044487 0
-0.85889351 -0.031705782 0.33448932 0
0.5191651 -0.0226682 0.32573986 1.6864225e-38
0.5311901 -0.027883789 0.33072594 1.806349e-38
-1.1458952 -0.011515714 0.32804838 1.7701917e-38
-1.1284809 -0.008272633 0.32740164 2.1109187e-38
-1.1113499 -0.0090485532 0.33081982 1.8250042e-38
-1.087166 -0.01176125 0.33001551 0
-1.0651441 -0.0050069452 0.33556536 1.4654774e-38
-0.90067315 -0.011391141 0.33849439 1.6040242e-38
-0.89172971 -0.012927965 0.32743049 0
-0.87584484 -0.016087003 0.32068327 1.2448212e-38
-0.85954088 -0.014467947 0.33947253 0
0.51909107 -0.0027920194 0.3256005 1.6680191e-38
0.53141844 -0.0076166778 0.33081695 1.7878741e-38
-1.1693215 0.011229273 0.32277888 1.2908819e-38
-1.1522119 0.0070314072 0.33045954 1.8255092e-38
-1.1299891 0.014940487 0.3301878 2.1016991e-38
-1.1113088 0.0096231215 0.33355764 1.7788339e-38
-1.0880661 0.012023436 0.32731792 1.3367645e-38
-1.0641882 0.010937049 0.33905751 1.677347e-38
-0.83328086 0.0031090677 0.32473278 0
0.51891088 0.017083805 0.32541195 1.64958e-38
0.53024596 0.012279264 0.332578 1.7970214e-38
0.54008299 0.015371363 0.32141447 1.5854423e-38
-1.1667325 0.032111205 0.32721519 1.8346928e-38
-1.1487219 0.03076392 0.32735488 2.1479415e-38
-1.1291912 0.033925999 0.32825112 1.8526624e-38
-1.1102912 0.029820945 0.32935116 1.4840604e-38
-1.0865109 0.034397475 0.33034581 1.5393065e-38
-0.84678406 0.022091221 0.32320943 1.5303384e-38
0.51870453 0.036944106 0.32521287 1.5296896e-38
0.52890152 0.033027761 0.33529809 1.7140816e-38
0.5401994 0.034975611 0.32194757 1.5853702e-38
-1.1921808 0.045399964 0.32122192 1.3276885e-38
-1.1672559 0.049606785 0.33317339 1.8439482e-38
-1.150753 0.051784225 0.32987633 2.1664887e-38
-1.1285456 0.054304618 0.33199736 1.9175606e-38
-1.1105636 0.051007692 0.33233193 1.5489948e-38
-1.0869093 0.055625625 0.33155125 1.7145858e-38
0.5139972 0.054472774 0.33352137 1.6503025e-38
0.5277946 0.053204369 0.33164138 1.4932095e-38
-1.1900532 0.066788211 0.32281822 2.019084e-38
-1.1692088 0.069664612 0.32955158 2.0376313e-38
-1.1503659 0.072188847 0.33167979 2.2587932e-38
-1.131158 0.069528416 0.33328223 2.0377045e-38
-1.1171468 0.060005512 0.32961312 1.5116815e-38
-1.094286 0.075313136 0.32785746 2.1020974e-38
-1.076926 0.074509621 0.33943927 2.1020974e-38
0.51156914 0.06916216 0.33164284 2.05582e-38
0.52451366 0.071588337 0.32986912 1.7424984e-38
-1.1870332 0.082714319 0.32652557 1.9271769e-38
-1.1701336 0.087755725 0.32873359 2.3509886e-38
-1.1508992 0.092747964 0.33126718 2.2219511e-38
-1.1297268 0.089068323 0.33617848 1.9361817e-38
-1.1090537 0.097377963 0.32006642 2.1297562e-38
-1.0950079 0.095536418 0.33185554 2.1297563e-38
0.51498693 0.094178282 0.33317852 1.4474365e-38
0.52519286 0.089904159 0.33006644 1.567363e-38
-1.2070347 0.11091036 0.32514185 1.4572684e-38
-1.1879017 0.10460266 0.32791904 2.0930573e-38
-1.1696333 0.10998137 0.32855591 2.2496097e-38
-1.1490083 0.1137979 0.33222094 2.1574145e-38
-1.1302085 0.10651292 0.33825344 2.1482309e-38
-1.1001614 0.10381081 0.32214248 2.1574146e-38
-1.0974765 0.112728 0.32970986 2.1850375e-38
0.51521742 0.11767683 0.32483855 1.7607223e-38
0.52575523 0.11128388 0.32960337 1.5211937e-38
-1.2023854 0.12378767 0.32014045 2.3509886e-38
-1.1885102 0.13110609 0.33296007 2.240462e-38
-1.1686008 0.12891845 0.32881644 2.2311708e-38
-1.1497124 0.13250647 0.33474195 2.1206082e-38
-1.128309 0.13746893 0.33808684 2.0929502e-38
-1.111768 0.1301381 0.3290695 2.2495742e-38
0.51418895 0.13096263 0.33386946 1.5577831e-38
0.52543813 0.13192114 0.33072716 1.4381812e-38
-1.2081804 0.14265019 0.3255403 2.3509886e-38
-1.1887273 0.15033065 0.33156955 1.9733114e-38
-1.1692305 0.1500818 0.328067 2.2035483e-38
-1.1548889 0.14588182 0.33035535 2.1482672e-38
-1.1279938 0.14047401 0.3283729 2.2127323e-38
-1.1092161 0.1568789 0.33472008 2.3417691e-38
0.51884359 0.14860249 0.33294511 1.3274376e-38
0.52664572 0.15072413 0.32861769 1.456584e-38
-1.2059317 0.16589107 0.3254149 2.3509886e-38
-1.1896139 0.1715221 0.32918516 2.1851806e-38
-1.1684126 0.16729197 0.33363792 2.2588294e-38
-1.1526542 0.16936417 0.3389892 2.1298284e-38
-1.1308104 0.16632962 0.32882488 2.3417691e-38
-1.1066408 0.17606649 0.33896741 2.3509886e-38
0.51871389 0.16934362 0.33141917 1.2260584e-38
0.52823651 0.17328928 0.32912934 1.4380732e-38
-1.2135308 0.18846059 0.32520354 2.3509886e-38
-1.1890413 0.19248678 0.32841411 2.3141106e-38
-1.17211 0.18761145 0.33177763 2.2312068e-38
-1.1250737 0.19065511 0.33012921 2.3509886e-38
0.51836979 0.18938187 0.32949516 1.2537174e-38
0.52778125 0.19232754 0.3295944 1.3274739e-38
-1.2243028 0.20736508 0.33099654 1.9364326e-38
-1.2070196 0.21008386 0.32910353 2.3509886e-38
-1.1879452 0.21131574 0.32795629 2.3141465e-38
-1.1718662 0.20775434 0.33685386 2.2680851e-38
-1.1463099 0.20462541 0.32311079 2.3509886e-38
-1.1323216 0.21271081 0.33542889 2.3509886e-38
0.51623428 0.20872346 0.33470422 0
0.52691406 0.21056719 0.32895654 1.1983996e-38
-1.2241886 0.22502507 0.32766765 2.3509886e-38
-1.2128985 0.22821608 0.32729086 2.3417691e-38
-1.1925092 0.22853611 0.33195293 2.3325854e-38
-1.1480322 0.22347203 0.33007994 2.3509886e-38
0.52555394 0.232535 0.32768774 0
-1.2287831 0.25012732 0.32791206 1.9547994e-38
-1.2065436 0.24793263 0.3319841 2.341769e-38
-1.1907883 0.24767028 0.33409652 2.3417691e-38
-1.1437339 0.24005879 0.33436278 2.3509886e-38
0.51914763 0.25696433 0.33640727 1.1796338e-38
0.52455419 0.25209692 0.32788911 0
-1.2323722 0.26842171 0.32605082 2.1022044e-38
-1.211922 0.26951426 0.32939434 2.0653263e-38
-1.1943367 0.26822191 0.33820033 2.3509886e-38
-1.1638756 0.2668258 0.32723075 2.3509886e-38
-1.1575328 0.27945653 0.32883406 2.3509886e-38
0.51771593 0.26871094 0.33416638 0
0.52668357 0.27453899 0.32787558 0
-1.2302796 0.28835025 0.32578406 2.1390827e-38
-1.2125077 0.28732449 0.32938763 2.0192644e-38
-1.1929475 0.29160246 0.33886668 2.3509886e-38
-1.1713176 0.28524789 0.32521573 2.3509886e-38
0.51407236 0.28838232 0.33361065 0
0.52403355 0.29627085 0.32738584 0
-1.2605402 0.30666983 0.32239616 2.3509886e-38
-1.2451053 0.30862045 0.32143736 2.3509886e-38
-1.2335205 0.31171298 0.32702482 2.1667052e-38
-1.2117804 0.30841652 0.33524024 2.3509886e-38
-1.1836355 0.30340809 0.32064551 2.3509886e-38
0.51414233 0.30520198 0.33158332 0
0.52536124 0.3112911 0.32801518 0
-1.2418296 0.32964063 0.32494038 2.1389388e-38
-1.2288833 0.32512769 0.33058923 1.9638389e-38
-1.2168444 0.33298483 0.33922175 2.1021327e-38
0.52336609 0.32675952 0.32616311 0
-1.2686203 0.35254905 0.33060232 1.6777797e-38
-1.2466404 0.34801561 0.33160067 1.5765098e-38
-1.2325469 0.34839422 0.33349508 1.2724435e-38
-1.1923094 0.35614088 0.32008457 1.3091062e-38
-1.1745679 0.35046643 0.32804 1.336765e-38
0.16925007 0.34745997 0.33128002 1.4842046e-38
0.1941673 0.34775028 0.32868806 0
0.21506613 0.34857467 0.32930529 0
0.22737874 0.3491396 0.3233847 0
0.51415318 0.35239813 0.3362031 0
0.52166444 0.3504003 0.33150983 0
-1.2664449 0.3674947 0.32868999 1.622715e-38
-1.2491671 0.36668104 0.32801041 1.4106649e-38
-1.232106 0.36982876 0.33686897 1.4937133e-38
-1.1942117 0.37066475 0.32470095 1.4014809e-38
-1.178858 0.36838719 0.33945286 1.3921897e-38
0.16685612 0.3725211 0.32977921 1.9362163e-38
0.27608946 0.37917846 0.33144048 0
0.28799662 0.37850505 0.33754823 0
0.33393332 0.3795144 0.33330575 0
0.49853918 0.3768875 0.33365476 0
0.51394856 0.37320051 0.33146381 0
0.52656031 0.3646225 0.32864803 0
-1.2654392 0.38579074 0.32373488 1.3368003e-38
-1.2496537 0.38958678 0.32862264 1.3183248e-38
-1.2334762 0.39006299 0.33436537 1.4657665e-38
-1.2050072 0.39890561 0.32372493 0
-1.1892288 0.38788301 0.32744932 1.2905948e-38
-1.1694129 0.38685739 0.33790144 1.2814109e-38
0.1568903 0.39646208 0.33756885 2.0283393e-38
0.16687419 0.39107376 0.32953355 1.9730947e-38
0.28888765 0.38235265 0.3301107 0
0.31154966 0.38284117 0.32723689 0
0.33453512 0.38390374 0.3284716 0
0.35086638 0.38497227 0.32662648 0
0.37050521 0.38653055 0.32971597 0
0.39237759 0.38592738 0.33546367 0
0.409293 0.38971764 0.33509433 0
0.43264037 0.3925209 0.32661009 0
0.44957447 0.39365643 0.32654202 0
0.46633339 0.39359108 0.33153355 0
0.48859698 0.39282894 0.33151159 0
0.51021415 0.39124906 0.32991779 0
-1.259835 0.40163964 0.33301425 1.2447858e-38
-1.2024572 0.40427428 0.33490652 0
0.15830307 0.41117904 0.3363367 2.1575941e-38
0.16897289 0.41311502 0.32575959 2.056107e-38
0.50957739 0.40274572 0.3215887 0
0.15618894 0.43362111 0.3392545 2.2312064e-38
0.1690805 0.42964882 0.32586443 2.0838377e-38
0.15732752 0.4475348 0.33667898 2.2958514e-38
0.16499382 0.45523798 0.32530242 2.3509886e-38
0.15919399 0.47745278 0.33470058 2.3509886e-38
0.16531619 0.46973819 0.32507536 2.341769e-38
-0.7683664 -0.72449762 0.35691181 1.8993014e-38
-0.79304922 -0.7085768 0.35990313 0
-0.77454627 -0.71646357 0.3480399 0
-0.86585742 -0.64318419 0.35666382 0
-0.8504957 -0.65489435 0.3590672 0
-0.87717527 -0.62135035 0.35204893 0
-0.85393173 -0.63386202 0.35596403 0
-0.88454223 -0.607517 0.34923816 0
-0.86952055 -0.60807681 0.3531729 0
-0.90080547 -0.58287823 0.34618431 0
-0.8900485 -0.58937073 0.34747747 0
-0.87381166 -0.5921731 0.35106468 0
-0.85784245 -0.58217263 0.35930073 0
-0.91357678 -0.57057047 0.34488451 0
-0.89041013 -0.57138222 0.34777927 0
-0.87376857 -0.57408756 0.35556942 0
-0.92249435 -0.54709613 0.34186453 0
-0.91036499 -0.54965663 0.34645489 0
-0.88684809 -0.55029273 0.35225287 0
-0.87281317 -0.55051458 0.35836625 0
-0.92524815 -0.5286063 0.34345907 0
-0.90872663 -0.53116488 0.35028774 0
-0.89025402 -0.53087658 0.35278764 0
-0.92631066 -0.51104355 0.34655267 0
-0.91183197 -0.51318794 0.34772074 0
-0.89708781 -0.51310933 0.35026401 0
-0.94281566 -0.48656344 0.34125817 0
-0.92744684 -0.48964044 0.34613016 0
-0.90806872 -0.49501637 0.34904683 0
-0.89120835 -0.49413508 0.35575593 0
-0.94303823 -0.46417892 0.34392333 0
-0.92750239 -0.46859846 0.34730369 0
-0.91072762 -0.47089705 0.35236019 0
-0.89193577 -0.47916743 0.35815266 0
-0.9459334 -0.4459604 0.34670591 0
-0.92829973 -0.44968823 0.34741956 0
-0.91074193 -0.45308891 0.35439003 0
-0.94893545 -0.43031543 0.34824723 0
-0.92753404 -0.42776614 0.34981444 0
-0.91168427 -0.43666458 0.3553395 0
-0.94677109 -0.41163409 0.34482604 0
-0.93260992 -0.41231519 0.3504346 0
-0.91204786 -0.4135159 0.35608953 0
-0.94480783 -0.39293131 0.34465015 0
-0.92976236 -0.3947832 0.35325232 0
0.72931236 -0.26723456 0.35874906 1.5204701e-38
-0.98589653 -0.23126823 0.35924655 2.3509886e-38
-0.96119869 -0.20286597 0.35195488 0
-0.95343226 -0.20543198 0.34887218 0
-0.92336065 -0.2075766 0.35630888 0
-0.91351259 -0.20324546 0.34342486 0
-0.89252579 -0.20335275 0.3463209 0
-0.96118653 -0.19443929 0.35366306 0
-0.95138067 -0.19046037 0.34713766 0
-0.93233609 -0.19093338 0.35859856 0
-0.91878879 -0.1894879 0.34611112 0
-0.88755208 -0.19486766 0.34673908 0
-0.70593059 -0.18030062 0.35446432 0
-0.69049186 -0.1832315 0.34659183 2.2771951e-38
-0.67605209 -0.18761308 0.34584272 2.3509886e-38
-0.50264961 -0.18005328 0.34503859 1.2800745e-38
-0.96381032 -0.16989653 0.35563928 0
-0.94843203 -0.17128342 0.34825814 0
-0.9367044 -0.16270187 0.35484627 0
-0.90525496 -0.16402011 0.35175923 0
-0.88700652 -0.1649909 0.34397358 0
-0.74659246 -0.17302546 0.35275626 2.0095025e-38
-0.73161644 -0.17319363 0.35099235 2.1386858e-38
-0.7108106 -0.1729912 0.34833312 2.3509886e-38
-0.68856752 -0.17047238 0.35474068 2.3509886e-38
-0.66916776 -0.17070621 0.35276455 2.3509886e-38
-0.51465201 -0.16088146 0.35963765 1.687579e-38
-0.49918285 -0.17208026 0.34772146 0
-0.92562836 -0.15218519 0.35404888 0
-0.91026109 -0.14639559 0.34617838 0
-0.8970685 -0.14767531 0.34729803 0
-0.685274 -0.14494899 0.3487407 2.2309525e-38
-0.63275188 -0.14458722 0.34588003 2.3509886e-38
-0.5171265 -0.15473907 0.35577962 2.14852e-38
-1.0802755 -0.12904949 0.3410334 0
-1.063699 -0.12827283 0.35393581 0
-0.92266333 -0.13097575 0.35553068 0
-0.91287655 -0.13243552 0.34778965 0
-0.894997 -0.12979183 0.35026127 0
-0.87939298 -0.12563589 0.34798166 0
-0.69289148 -0.13841286 0.34815714 1.4469291e-38
-0.24212372 -0.12437146 0.35265768 0
-0.22731413 -0.12468114 0.35142484 1.1897942e-38
-0.20497979 -0.12611225 0.35201415 1.3004645e-38
-1.0693543 -0.11304826 0.34530124 0
-1.0556014 -0.11080343 0.35323521 0
-0.92266589 -0.10995313 0.35089973 0
-0.91664428 -0.11207384 0.34636825 0
-0.89769107 -0.10396817 0.35025725 0
-0.86603892 -0.11155029 0.35164326 0
-0.45722076 -0.11791658 0.34043658 2.3509886e-38
-0.23318887 -0.11695169 0.35518169 0
-0.20691836 -0.11585248 0.35305625 0
-0.18631531 -0.10993157 0.35121626 0
0.2286467 -0.11849692 0.35833752 1.8515791e-38
0.51451266 -0.1019613 0.35002035 1.5298351e-38
0.5223881 -0.11158359 0.34290507 1.7878011e-38
-1.0510089 -0.094456486 0.34741971 0
-1.0335499 -0.089602359 0.35876411 0
-0.94067806 -0.089453481 0.35798967 0
-0.92824453 -0.088233486 0.34947222 0
-0.90841168 -0.088429116 0.34615573 0
-0.86543262 -0.093545124 0.35488215 0
0.51414609 -0.088906579 0.3493135 1.6496887e-38
0.52571642 -0.093300521 0.34458217 1.6498696e-38
-1.0940931 -0.068786502 0.34588063 1.6965428e-38
-1.0463921 -0.079710506 0.34338564 0
-1.0206323 -0.066425093 0.35756493 0
-1.0086279 -0.062457278 0.35710281 1.1796355e-38
-0.92610168 -0.071796909 0.35015571 0
-0.90841293 -0.073261574 0.34573063 0
-0.89759099 -0.073335618 0.34007609 0
-0.86894524 -0.066291377 0.35574937 0
0.51340908 -0.065109663 0.35133892 1.7326286e-38
0.52347636 -0.067965247 0.34528273 1.8247887e-38
-1.1004584 -0.052152693 0.34577596 2.3232936e-38
-1.0858439 -0.050927289 0.34964696 1.4381434e-38
-1.0736611 -0.046915054 0.34680796 1.8711021e-38
-1.0272421 -0.049104683 0.35214329 0
-0.91076016 -0.041616276 0.35290411 0
-0.88272047 -0.048279457 0.35354322 0
0.51326817 -0.045124188 0.35142499 1.7510673e-38
0.52322811 -0.048119716 0.34578857 1.8524831e-38
-1.1097788 -0.030875238 0.34922484 1.8254732e-38
-1.0877589 -0.030977223 0.34812528 1.8713185e-38
-1.0732032 -0.030570943 0.35019451 1.6959663e-38
-1.058539 -0.029751156 0.35555148 1.5668919e-38
-0.90717179 -0.030017637 0.35230938 0
-0.89104062 -0.028681992 0.34846464 0
-0.87547374 -0.029457293 0.35603812 0
0.51425761 -0.02612732 0.351933 1.7694706e-38
0.52417743 -0.028703269 0.34556112 1.7787993e-38
-1.1336222 -0.0088282004 0.34501037 1.3183612e-38
-1.1105392 -0.011352694 0.34857333 1.9820611e-38
-1.0884478 -0.0088504739 0.3483139 1.9264189e-38
-1.072777 -0.0097301323 0.3507821 1.6499044e-38
-1.0522888 -0.0085618114 0.35154769 1.3182529e-38
-1.028222 -0.010900782 0.35925391 1.3270756e-38
-0.90587842 -0.016381273 0.35178775 1.2627189e-38
-0.89884973 -0.014858896 0.34379381 0
-0.86549234 -0.0096252523 0.35435632 0
0.51410788 -0.0061408686 0.3519873 1.7601786e-38
0.5213685 -0.0081819165 0.34928057 1.7603242e-38
-1.1285536 0.010682104 0.3493956 1.6871436e-38
-1.1077009 0.0095650079 0.35029691 1.972806e-38
-1.0908536 0.0094558476 0.34752584 1.8803213e-38
-1.0708743 0.0088738184 0.35259408 1.5117555e-38
-1.0503681 0.0081508858 0.35544741 1.4564384e-38
-0.86272728 0.0046757683 0.35155714 0
-0.85197711 0.0099102333 0.34068561 0
0.51372945 0.015057491 0.3515287 1.7141529e-38
0.52306342 0.0097229835 0.34890208 1.760288e-38
-1.1557107 0.035444289 0.34007028 1.3552032e-38
-1.1342014 0.028564174 0.34751648 2.019084e-38
-1.1088094 0.030228907 0.34973174 2.1386498e-38
-1.0909576 0.027760029 0.3510865 1.8894328e-38
-1.0676947 0.029091354 0.35011849 1.539306e-38
-1.046393 0.026554512 0.35650253 1.7325922e-38
0.51360089 0.035141014 0.35136932 1.6311774e-38
0.5225352 0.032789394 0.34680152 1.6957513e-38
-1.1494565 0.050512597 0.34454012 1.8531317e-38
-1.1274767 0.050383072 0.34779772 1.991353e-38
-1.1071242 0.05096069 0.35198912 2.0096114e-38
-1.0913973 0.047478575 0.34951693 1.6685964e-38
-1.0652735 0.048986509 0.35090399 1.4843138e-38
0.5107528 0.055350825 0.35033098 1.6685611e-38
0.52297485 0.050285645 0.34679103 0
-1.163332 0.079870775 0.34831336 1.5677583e-38
-1.151513 0.069429152 0.34838811 1.9085935e-38
-1.127473 0.071026191 0.34760314 2.1205717e-38
-1.1090769 0.069304116 0.34970579 2.1020967e-38
-1.0918103 0.066534817 0.35241365 1.9639481e-38
-1.0653317 0.06639979 0.35582817 1.8719332e-38
0.51022035 0.073072188 0.34844968 1.6134607e-38
-1.1722479 0.098180309 0.34408608 1.6969772e-38
-1.1519773 0.090092689 0.35362327 1.9365051e-38
-1.1273611 0.091115974 0.3481034 2.2956715e-38
-1.1094772 0.088797584 0.35131738 2.1021332e-38
-1.0876464 0.090435594 0.35442826 1.9546208e-38
-1.0693245 0.090799831 0.35112286 2.148159e-38
0.49991596 0.086029261 0.3594754 1.4104864e-38
0.51044023 0.092286162 0.3497785 1.6042052e-38
-1.1702478 0.11082151 0.34502563 2.0377764e-38
-1.1531668 0.11213972 0.35116825 2.2036199e-38
-1.131603 0.11134017 0.34992072 2.2956715e-38
-1.1136067 0.1076979 0.35031995 1.9823153e-38
-1.0879548 0.10862596 0.34680024 2.175854e-38
-1.0784762 0.11079153 0.3500115 2.194257e-38
0.51083535 0.11372316 0.35150585 1.6225726e-38
-1.1710539 0.13353327 0.34987533 2.1575584e-38
-1.1494559 0.13139512 0.34723774 2.3509886e-38
-1.1300433 0.13250698 0.3492842 2.2403904e-38
-1.1133692 0.12554128 0.35431397 2.0191577e-38
-1.092073 0.13761815 0.3482213 2.2864164e-38
-1.077715 0.1308227 0.35555065 2.2587579e-38
0.51180702 0.13169956 0.34991047 1.5118655e-38
-1.1867883 0.14275679 0.35108018 2.3509886e-38
-1.1682318 0.15363064 0.34916347 2.0930936e-38
-1.1499006 0.15263385 0.34615597 2.2772685e-38
-1.1310925 0.15088183 0.35037386 2.1666702e-38
-1.1151559 0.14929922 0.35881293 2.0376687e-38
-1.095286 0.15504971 0.34788412 2.3417691e-38
0.51233488 0.15305007 0.34958696 1.4565482e-38
0.52561766 0.15414496 0.34053373 1.6136431e-38
-1.1991835 0.1713903 0.35208291 1.8167957e-38
-1.1681802 0.1733873 0.34480423 2.2957436e-38
-1.1519855 0.17379393 0.34862834 2.2864879e-38
-1.1321585 0.17039578 0.35549283 2.2035484e-38
-1.0923476 0.17319238 0.35193545 2.3509886e-38
0.51246727 0.17272314 0.34973487 1.4104502e-38
0.52643079 0.17422585 0.34190014 1.530595e-38
-1.2335911 0.18947896 0.34270012 1.5495358e-38
-1.2077681 0.18047133 0.3412087 1.6969406e-38
-1.1845049 0.19088142 0.34709418 2.0470679e-38
-1.1681663 0.19249153 0.34774646 2.341769e-38
-1.1516191 0.19221723 0.35109288 2.2772685e-38
-1.133183 0.19150573 0.3519946 2.1206448e-38
-1.1116135 0.19779584 0.34648246 2.3509886e-38
-1.0957206 0.19255498 0.35765377 2.3509886e-38
0.51120025 0.19037783 0.35059318 1.2905232e-38
0.5233205 0.19419393 0.34847847 1.4568382e-38
-1.2306057 0.21787466 0.34017795 1.5218405e-38
-1.2093588 0.2081593 0.34620288 1.798356e-38
-1.18876 0.21293427 0.34871295 2.1668141e-38
-1.1702929 0.21215707 0.35252854 2.2681568e-38
-1.1517124 0.21386811 0.3500534 2.2957075e-38
-1.1283011 0.21429302 0.35062474 2.2588655e-38
-1.1106634 0.21710563 0.35118341 2.3509886e-38
0.51181847 0.21024649 0.35022503 1.1799241e-38
0.52363515 0.21362065 0.34906238 1.3186165e-38
-1.1882981 0.22715993 0.34697562 2.3509886e-38
-1.1718498 0.23071787 0.34902668 2.3325854e-38
-1.1532357 0.23051453 0.35079315 2.3049272e-38
-1.1148863 0.23541345 0.35038847 2.3509886e-38
0.51114732 0.23316847 0.35048729 0
0.52420223 0.23407166 0.349446 1.3370915e-38
-1.2375538 0.25553629 0.3489534 1.5864499e-38
-1.1905752 0.2499667 0.34843931 2.2865597e-38
-1.1739229 0.24751826 0.35100105 2.286596e-38
-1.1537061 0.24953251 0.35494679 2.3417691e-38
-1.1301408 0.24041089 0.34250784 2.3509886e-38
-1.1113315 0.25195479 0.35285899 2.3509886e-38
0.51080066 0.25093338 0.35035411 0
0.52363646 0.24555933 0.35292023 0
-1.2451922 0.26692498 0.34508806 1.5125845e-38
-1.2228646 0.26681268 0.34470955 1.6785377e-38
-1.2116902 0.27134287 0.34171504 1.9824583e-38
-1.1904674 0.26567242 0.35147366 2.3509886e-38
-1.1730101 0.26800427 0.35153577 2.3509886e-38
-1.1493278 0.27211463 0.35009623 2.3509886e-38
-1.1317065 0.27090323 0.35578412 2.3509886e-38
0.51096606 0.27050707 0.34814885 0
-1.2043039 0.2801773 0.34502065 2.3509886e-38
-1.1919723 0.28904891 0.34406167 2.3509886e-38
-1.1692877 0.28802118 0.35537788 2.3509886e-38
0.50753343 0.2909722 0.35179803 0
-1.2093885 0.30947047 0.34799898 2.2034757e-38
-1.1942377 0.3099367 0.35046807 2.3141104e-38
-1.1783293 0.30946258 0.35534406 2.3509886e-38
0.5084089 0.31093538 0.35124922 0
-1.22718 0.3363401 0.34863177 2.1389383e-38
-1.2091143 0.33197242 0.34873614 1.9361445e-38
-1.1881251 0.33017394 0.35336643 1.9084858e-38
-1.1786358 0.33026126 0.35924172 2.1850727e-38
-1.1267188 0.32709166 0.35414234 2.0098647e-38
0.15056771 0.33986175 0.35054299 1.1889604e-38
0.16615029 0.33867818 0.35554177 0
0.51095784 0.33043256 0.34844482 0
-1.2438133 0.34922379 0.3484593 1.8070336e-38
-1.220804 0.35602894 0.35734937 1.410592e-38
-1.2088435 0.3529813 0.34738258 1.4843857e-38
-1.193728 0.34731317 0.35259867 1.3553481e-38
-1.1564908 0.34718168 0.34811068 1.502789e-38
-1.1380841 0.34517267 0.35596606 1.5396311e-38
0.15042537 0.35014239 0.34855166 1.5211898e-38
0.17021459 0.34470314 0.35087493 0
0.18865739 0.3465305 0.34527144 0
0.20638762 0.34638083 0.34791127 0
0.50992697 0.35375202 0.34976673 0
-1.2270292 0.36939234 0.34825787 1.4567989e-38
-1.2110169 0.37121826 0.35354644 1.2540046e-38
-1.1903106 0.37441415 0.35770047 0
-1.162358 0.37115246 0.35080802 1.4014089e-38
0.15261243 0.36957043 0.34546623 1.853131e-38
0.16080429 0.37664348 0.34760401 1.7149468e-38
0.25924742 0.37194067 0.35608718 0
0.27117759 0.3751207 0.34770843 0
0.28362229 0.37448463 0.3580201 0
0.30792058 0.3788968 0.34990525 0
0.32897681 0.37896687 0.34555066 0
0.49203706 0.37259126 0.35204396 0
0.50541663 0.37043092 0.35039645 0
-1.2455691 0.39585912 0.34033656 0
-1.2286315 0.38640153 0.34790844 1.2355652e-38
-1.2098595 0.3898944 0.35341904 0
-1.196287 0.39456466 0.35818219 1.3274366e-38
-1.1501735 0.38955235 0.35294205 1.2076547e-38
-1.1196672 0.38804272 0.3591204 0
0.14958516 0.39310122 0.35355854 1.6872155e-38
0.16124709 0.39618745 0.3464537 1.7058352e-38
0.28292283 0.3809993 0.35166585 0
0.30796537 0.38424504 0.34589311 0
0.32935685 0.38302863 0.34935611 0
0.35024446 0.3831149 0.35003084 0
0.37302431 0.38396651 0.35073805 0
0.38857248 0.38377509 0.35309276 0
0.40784973 0.38751405 0.35072991 0
0.42953312 0.38965008 0.35020471 0
0.45318604 0.39133924 0.34935632 0
0.47074261 0.39217028 0.35136101 0
0.49246445 0.39183202 0.34963465 0
-1.2295434 0.4090609 0.35223603 0
-1.2129645 0.41278762 0.35228521 0
0.15036421 0.41415063 0.35209343 1.7703356e-38
0.16196285 0.41480708 0.3443844 1.6690293e-38
-1.2178844 0.42281103 0.35239038 0
0.15184422 0.4332695 0.35188827 1.9086656e-38
0.16151325 0.42973399 0.34389973 1.8073597e-38
0.15038611 0.45943445 0.34946284 2.0745819e-38
0.14903724 0.47670889 0.35141769 2.074618e-38
0.14399131 0.48227 0.35892749 2.1760332e-38
-3.2732854 1.009388 0.35000119 2.3509886e-38
-3.2425873 1.0110393 0.34944302 1.9361444e-38
-3.211519 1.0109985 0.35399547 1.77717e-38
-3.2444384 1.0233068 0.34821221 0
-3.2135701 1.0283346 0.35468307 1.4106284e-38
-3.155237 1.0312952 0.35355759 1.3921184e-38
-0.83019578 -0.70664954 0.36809388 0
-0.81727457 -0.71655428 0.36847949 0
-0.79791445 -0.70736456 0.36745027 0
-0.77743685 -0.71206927 0.37052858 0
-0.8333602 -0.68677682 0.37069201 0
-0.84107059 -0.66543698 0.36835438 0
-0.8502928 -0.64420193 0.36646575 0
-0.83319783 -0.65467572 0.36981499 0
-0.86119998 -0.62401795 0.36108443 0
-0.84891862 -0.62848878 0.36642718 0
-0.83276314 -0.63841188 0.37164032 0
-0.86044419 -0.60330337 0.36522821 0
-0.84674984 -0.60583168 0.37006727 0
-0.82928193 -0.61219192 0.37841681 0
-0.86451548 -0.59153694 0.36621478 0
-0.84951991 -0.5906648 0.37037173 0
-0.83026361 -0.59215295 0.37303168 0
-0.88215244 -0.56480974 0.36143732 0
-0.86443734 -0.57223308 0.37073103 0
-0.85152119 -0.57229066 0.36827728 0
-0.83503753 -0.56768858 0.37504584 0
-0.88496578 -0.55093551 0.36294594 0
-0.86687112 -0.55073118 0.37236807 0
-0.85301924 -0.55413961 0.37163243 0
-0.83533752 -0.54734665 0.37825334 0
-0.88554806 -0.52990329 0.36591926 0
-0.87544596 -0.53460574 0.37032375 0
-0.85433912 -0.53195882 0.37412524 0
-0.90530086 -0.50554949 0.36301491 0
-0.88554341 -0.50928211 0.36457068 0
-0.87191695 -0.51368684 0.37196258 0
-0.85604262 -0.50699401 0.37585503 0
-0.90430242 -0.48535389 0.3662129 0
-0.89240354 -0.49469399 0.36796495 0
-0.87256068 -0.49103761 0.37264702 0
-0.85663491 -0.48569229 0.37893841 0
-0.90700161 -0.46849999 0.36321664 0
-0.89247227 -0.4695839 0.36934271 0
-0.87260187 -0.46769571 0.37673825 0
-0.92719406 -0.44569325 0.36182508 0
-0.90895915 -0.4506889 0.36842877 0
-0.89039689 -0.45110765 0.37145603 0
-0.92875212 -0.43318695 0.36492291 0
-0.90828419 -0.43239135 0.36660635 0
-0.8932128 -0.43257147 0.37297922 0
-0.87700319 -0.42930534 0.37640715 0
-0.92505771 -0.4100014 0.36245123 0
-0.90789568 -0.41126353 0.36916751 0
-0.89492238 -0.41231412 0.377235 0
-0.92256165 -0.39919248 0.37097341 0
-0.90732741 -0.39699119 0.37003273 0
-0.89456105 -0.39679712 0.37836254 0
0.77554524 -0.304447 0.37452376 1.4928473e-38
0.7985183 -0.31816992 0.37809089 1.465153e-38
0.73315656 -0.28395748 0.36989039 1.5849714e-38
0.74831611 -0.29499966 0.37352514 1.5389452e-38
0.72695839 -0.27309364 0.36579365 1.548129e-38
-0.96832675 -0.22940639 0.37214178 2.2305932e-38
-0.96490836 -0.20724273 0.37009192 0
-0.95654678 -0.21101867 0.37484202 0
-0.9380129 -0.21389994 0.37175995 0
-0.90287191 -0.20963222 0.3742556 0
-0.89407504 -0.20916665 0.37966752 0
-0.96370041 -0.19251332 0.36944747 0
-0.95131701 -0.18869948 0.36631274 0
-0.93321776 -0.18849556 0.37549362 0
-0.91167587 -0.18826021 0.3736403 0
-0.72614998 -0.18685764 0.37234294 2.3509886e-38
-0.70656091 -0.18130043 0.36593819 2.3509886e-38
-0.6884439 -0.18552227 0.36806041 2.1389016e-38
-0.67971337 -0.19329855 0.3746326 2.3509886e-38
-0.98248339 -0.17673171 0.37852415 0
-0.96864718 -0.16792879 0.37772572 0
-0.95272803 -0.17612348 0.36713678 0
-0.9304238 -0.1674145 0.36138108 0
-0.91236645 -0.16813666 0.36571515 0
-0.89952952 -0.17233422 0.37251318 0
-0.74621713 -0.17208646 0.37483817 1.852699e-38
-0.73175424 -0.17323874 0.36634541 2.1756002e-38
-0.71129143 -0.17760499 0.36927873 2.1666342e-38
-0.68893749 -0.16991693 0.37266749 1.9634373e-38
-0.66691583 -0.1715275 0.3626307 2.3509886e-38
-0.65219063 -0.17156276 0.37536886 2.3509886e-38
-0.63028449 -0.16947138 0.37791675 2.3509886e-38
-0.5300113 -0.16742727 0.37735301 0
-0.51256216 -0.17318994 0.36479554 0
-0.40935072 -0.16997235 0.37550998 1.492954e-38
-0.96764266 -0.14630954 0.37141415 0
-0.92795902 -0.14602146 0.36316952 0
-0.90825826 -0.15339616 0.36936474 0
-0.69209784 -0.14441745 0.37071258 2.3416964e-38
-0.66455501 -0.14421517 0.37100112 2.3509886e-38
-0.65037197 -0.1437026 0.36847791 2.3509886e-38
-0.54071504 -0.15925662 0.37591764 2.2222395e-38
