# .PCD v0.7 - Point Cloud Data file format
VERSION 0.7
FIELDS x y z rgb
SIZE 4 4 4 4
TYPE F F F F
COUNT 1 1 1 1
WIDTH 1113
HEIGHT 1
VIEWPOINT 0 0 0 1 0 0 0
POINTS 1113
DATA ascii
0.36884841 0.010069121 0.22564572 1.8800334e-38
0.38472712 0.0098679978 0.23368454 1.7418841e-38
0.35954455 0.031631656 0.22806196 1.8523396e-38
0.37388694 0.026922762 0.22926249 1.8523742e-38
0.3838914 0.030337861 0.2318531 1.6957505e-38
0.3593381 0.051051103 0.22961965 1.8430841e-38
0.36934087 0.048585035 0.22602877 1.8709222e-38
0.38297114 0.0522599 0.2329932 1.7694348e-38
0.35709262 0.066780344 0.23130758 1.8430837e-38
0.36876243 0.069652677 0.23000136 1.6499408e-38
0.38298643 0.069471046 0.23339336 1.7695074e-38
0.35828561 0.095399283 0.23180138 1.8339005e-38
0.37291059 0.090661563 0.22782378 2.0281598e-38
0.38218552 0.088505886 0.2304738 1.9727354e-38
0.35803622 0.10928395 0.22702439 1.7976364e-38
0.37443599 0.11339758 0.23119044 1.8899751e-38
0.38207644 0.10964316 0.23342653 2.1480873e-38
0.35607859 0.12829214 0.22927549 1.8254757e-38
0.37542075 0.1320879 0.23015457 1.7701571e-38
0.38270554 0.13008204 0.23033229 1.7978163e-38
0.35411477 0.14823407 0.22951536 1.8439148e-38
0.37425929 0.15107755 0.23019683 1.8898671e-38
0.3838222 0.15016875 0.23212609 1.8715367e-38
0.3529976 0.16812132 0.22917016 1.7517551e-38
0.37312371 0.17185983 0.22754517 1.6594496e-38
0.38293347 0.16852792 0.2315283 1.760866e-38
0.35209396 0.18826646 0.22991262 1.6226452e-38
0.37157831 0.18986629 0.22331782 1.5947322e-38
0.38280159 0.1887849 0.23024847 1.7054768e-38
0.3525151 0.20819837 0.23130015 1.3736448e-38
0.3722758 0.21002516 0.22749047 1.3828627e-38
0.38290456 0.20953669 0.23231313 1.5211215e-38
0.354175 0.23042476 0.22968507 0
0.37398559 0.22952166 0.22869423 1.6869639e-38
0.38316268 0.23087828 0.23389994 1.5394882e-38
0.35344708 0.25222033 0.2276675 1.198184e-38
0.37364203 0.25157008 0.2270797 1.3920104e-38
0.38349721 0.24992494 0.23221298 1.4749509e-38
0.352622 0.2721349 0.22532129 0
0.37633052 0.27054635 0.22896603 1.179961e-38
0.38410068 0.27203283 0.23498011 1.5302324e-38
0.35137093 0.2882337 0.22893494 0
0.37448746 0.29080838 0.22984967 1.3826828e-38
0.38403124 0.29018149 0.22515528 0
0.37318969 0.31085283 0.22837864 0
0.38451529 0.31027481 0.22284916 0
0.37238389 0.32877204 0.23105466 0
0.38370913 0.33357894 0.2295112 0
0.37407666 0.35115537 0.22850497 0
0.38236254 0.35295743 0.23001869 0
0.37525219 0.37266201 0.23077169 0
0.38233948 0.36568928 0.23143934 0
0.079170808 0.39959446 0.22497885 1.3547699e-38
0.089883529 0.39210933 0.22829071 0
0.10602555 0.39690942 0.23437428 0
0.1308502 0.39409614 0.22433534 0
0.15537915 0.39691681 0.22414771 0
0.17664781 0.39684829 0.22337346 0
0.1911945 0.39771798 0.22441994 0
0.21388738 0.39873463 0.22068104 0
0.37363106 0.39306363 0.23131457 0
0.38619661 0.38911402 0.22470042 0
0.074944906 0.41175213 0.23074889 1.7055106e-38
0.088502221 0.41049528 0.22894311 1.7237333e-38
0.10816492 0.40645251 0.23041576 0
0.12591712 0.40500218 0.23483615 0
0.14958578 0.40455592 0.23432712 0
0.16857025 0.40753329 0.23259294 0
0.18969797 0.40796819 0.23499042 0
0.21197502 0.40726599 0.2305309 0
0.22796503 0.41125479 0.23169722 0
0.25098941 0.412141 0.2302597 0
0.26867083 0.41175991 0.23048773 0
0.28688276 0.41395831 0.23096278 0
0.30739531 0.4154093 0.22584414 0
0.32931852 0.41423839 0.22571713 0
0.34740683 0.41675514 0.23182859 0
0.37162483 0.41154057 0.23010986 0
0.058281593 0.43760404 0.22651021 2.3509886e-38
0.071029834 0.43037391 0.22705248 1.7424603e-38
0.087580994 0.42390454 0.22855359 2.3509886e-38
0.15012665 0.43930298 0.23899594 1.3177112e-38
0.16991369 0.42860541 0.23232707 1.2347361e-38
0.19161299 0.42210492 0.22798455 1.1977863e-38
0.20504761 0.42087179 0.22938 1.2069699e-38
0.22699882 0.42070189 0.22780719 1.1977502e-38
0.25187516 0.42182291 0.22453044 1.1793467e-38
0.27114761 0.42822433 0.23418528 0
0.29056722 0.42065084 0.22386417 0
0.32690179 0.42993623 0.23435673 0
0.34863064 0.42665219 0.23162532 0
0.37585518 0.42511421 0.23076575 0
0.074316792 0.4452914 0.23231626 1.7699402e-38
0.11648437 0.45026392 0.23139529 2.3417333e-38
0.13989736 0.44044822 0.22821561 1.2253717e-38
0.1454861 0.4403457 0.22908592 1.2256237e-38
0.17301916 0.44035611 0.22589326 1.1980007e-38
0.19302592 0.44196558 0.23067808 1.2624655e-38
0.2117147 0.44260305 0.22905743 1.2716133e-38
0.23251101 0.44270691 0.22772233 1.2808325e-38
0.25303197 0.44306168 0.22675891 1.2899796e-38
0.27219853 0.443046 0.23162644 1.3360413e-38
0.29183736 0.44283968 0.23182912 1.2991986e-38
0.31502315 0.44590887 0.22980562 1.2254424e-38
0.3298586 0.44684476 0.22894414 1.1794157e-38
0.35041741 0.44315225 0.22709124 0
0.073942825 0.46810898 0.23369196 1.6591611e-38
0.1121811 0.47181118 0.22598851 2.0560706e-38
0.072430633 0.48730978 0.229693 1.6686689e-38
0.07099092 0.50858575 0.22741108 1.7703359e-38
0.10220455 0.50212985 0.2260277 1.4570867e-38
0.07035742 0.52906483 0.22861163 1.7057271e-38
0.099314883 0.53856605 0.23310807 1.4478667e-38
0.10063096 0.52081931 0.23183286 1.4662342e-38
0.069615446 0.55243248 0.23010114 1.5491743e-38
0.0966518 0.5523355 0.23762701 1.4295353e-38
0.10078625 0.5463798 0.22126402 1.4663054e-38
0.069989458 0.56977588 0.23087238 1.6137478e-38
0.099824458 0.56509435 0.23019178 1.4387186e-38
0.067823179 0.59203196 0.22935989 1.7887037e-38
0.09856309 0.58300233 0.23657051 1.429463e-38
0.10071187 0.59104311 0.22216056 1.4386827e-38
0.066179842 0.61067557 0.22705233 1.6967234e-38
0.09979903 0.60447359 0.22748962 0
0.065370977 0.63197923 0.22705662 1.7703008e-38
0.27564323 -0.10276789 0.25970027 1.4742276e-38
0.21987313 -0.081775203 0.25038528 1.4920885e-38
0.36827779 -0.088619411 0.25088632 1.8615939e-38
0.38191536 -0.090389006 0.25022727 1.6306699e-38
0.21393625 -0.068492733 0.25255376 0
0.22249037 -0.075983569 0.24814002 0
0.33600086 -0.076093033 0.24228048 1.372813e-38
0.36946625 -0.063494623 0.24447885 1.7328091e-38
0.38591588 -0.069976658 0.25350973 1.6218854e-38
0.35930967 -0.041620899 0.25886148 1.6401446e-38
0.36993808 -0.045006197 0.24629629 1.7786181e-38
0.38620669 -0.050453126 0.25177321 1.6221015e-38
0.35949314 -0.026889816 0.25154072 1.7509966e-38
0.36978188 -0.027915576 0.24585052 1.935423e-38
0.38640815 -0.030029539 0.25113735 1.6774552e-38
0.35866538 -0.007101085 0.24276523 1.8339365e-38
0.37075058 -0.0065827873 0.25085258 1.9262031e-38
0.38620901 -0.0091704614 0.25028142 1.6774193e-38
0.35870066 0.012820665 0.24252531 1.8615952e-38
0.37038699 0.016768808 0.24515752 1.8524831e-38
0.38628134 0.0096436813 0.2506676 1.686567e-38
0.35871994 0.032683432 0.24227978 1.8615589e-38
0.37151736 0.036497682 0.24639392 1.8432274e-38
0.38545001 0.028456531 0.25156033 1.7050057e-38
0.35828105 0.052367005 0.24204573 1.8523397e-38
0.37102333 0.056590065 0.2473323 1.9818096e-38
0.38509291 0.048933934 0.25077054 1.7141532e-38
0.35741749 0.072170302 0.24215235 1.8338644e-38
0.37292999 0.075209372 0.25011724 1.659449e-38
0.38477936 0.07010033 0.25337836 1.8432997e-38
0.35778749 0.092023157 0.24191073 1.8338649e-38
0.37477431 0.093539715 0.25160497 1.5764731e-38
0.3847445 0.088822559 0.25387388 1.9543688e-38
0.35829437 0.11349702 0.24433909 2.0095779e-38
0.37728176 0.1140276 0.25365222 1.8071074e-38
0.38435891 0.1116195 0.25113285 1.9176348e-38
0.35469174 0.13257305 0.2474207 2.0373094e-38
0.37784335 0.13139759 0.24990968 1.7887044e-38
0.38289118 0.13256219 0.25050703 1.7610102e-38
0.35360613 0.15413874 0.24861911 2.0374172e-38
0.37746507 0.15179898 0.25223529 1.8162553e-38
0.38486433 0.15193194 0.24960515 1.7702297e-38
0.35279971 0.17400794 0.24857286 1.9267824e-38
0.37704849 0.16839635 0.24915878 1.604277e-38
0.38537523 0.17123944 0.25050572 1.6226449e-38
0.35261589 0.19372314 0.24836001 1.8529541e-38
0.37671173 0.19407022 0.24786642 1.8530607e-38
0.3847684 0.191346 0.25135523 1.6962932e-38
0.35302418 0.21357962 0.24903725 1.7238799e-38
0.37561271 0.21616708 0.25225124 1.72395e-38
0.38494337 0.20932971 0.24939738 1.5395964e-38
0.3464703 0.23359588 0.25338405 1.7238812e-38
0.37071884 0.23187891 0.24842593 1.668597e-38
0.38438338 0.22847928 0.24918975 1.5395244e-38
0.34571764 0.25379914 0.25305247 1.5948071e-38
0.3742252 0.250655 0.24566208 1.5487794e-38
0.38459888 0.25083604 0.25012803 1.5210488e-38
0.34568119 0.27396986 0.25292221 1.5026478e-38
0.37400016 0.27184561 0.249786 1.2907039e-38
0.38509497 0.26835808 0.25066656 1.3735359e-38
0.34518987 0.28971112 0.25255799 1.4289986e-38
0.37298962 0.29034692 0.24832025 1.4012664e-38
0.38536391 0.2889728 0.2492142 0
0.37242341 0.31098408 0.24733745 0
0.38393542 0.3113206 0.24787951 0
0.37476549 0.33175075 0.2491498 0
0.38530713 0.32949281 0.24980767 0
0.37409624 0.3499378 0.24577896 0
0.38360122 0.35235894 0.24824801 0
0.37535557 0.37245578 0.24690543 0
0.38587448 0.37313661 0.25246525 0
0.089424968 0.39855933 0.25066683 1.2165127e-38
0.11206406 0.397508 0.25070712 0
0.37348709 0.39392847 0.24923295 0
0.38545918 0.39071226 0.24935448 0
0.07401257 0.41222557 0.25141791 1.8807176e-38
0.091410041 0.40673071 0.24926209 1.3639892e-38
0.10787862 0.40285978 0.24614361 0
0.13221771 0.40436086 0.244048 0
0.14847603 0.40480685 0.24479064 0
0.17166692 0.40730095 0.24179307 0
0.19105284 0.40733629 0.24208887 0
0.21606086 0.41373581 0.24767134 0
0.24437383 0.41981566 0.24193946 1.2345561e-38
0.26768342 0.41632965 0.2447117 0
0.28392646 0.41781837 0.2547569 1.2345552e-38
0.31092599 0.41768295 0.24214426 0
0.33204117 0.41697052 0.24955127 0
0.35289058 0.41614506 0.25562701 0
0.37504715 0.4127087 0.24762565 0
0.38040921 0.4024756 0.25994909 0
0.072949462 0.42945662 0.24517368 2.2216989e-38
0.090587281 0.42345232 0.25303966 2.3325494e-38
0.15116173 0.4376407 0.25833601 1.3914312e-38
0.17218842 0.42915308 0.25460455 0
0.19030797 0.42877525 0.25212714 0
0.20896433 0.43115973 0.25307751 0
0.23357609 0.43632591 0.25170618 0
0.2546123 0.43638891 0.25275028 0
0.26258314 0.43598247 0.25556266 0
0.28234905 0.43697309 0.25337517 0
0.30763742 0.43650666 0.24775243 0
0.32701266 0.43654847 0.2478323 0
0.35061726 0.42972535 0.24903139 0
0.37618515 0.4250598 0.24547052 0
0.069432765 0.4595601 0.24217898 0
0.09788923 0.45128468 0.2499008 2.0185812e-38
0.1091207 0.45545471 0.24803005 2.1198887e-38
0.14062548 0.44219804 0.25089499 1.465188e-38
0.21219134 0.44037384 0.25467947 1.3914307e-38
0.23378728 0.44151774 0.2510826 1.3913589e-38
0.25412086 0.44063914 0.25197336 1.3913585e-38
0.274777 0.44074097 0.25230864 1.3729194e-38
0.28993976 0.44113845 0.24979433 0
0.31206253 0.44273013 0.25046551 0
0.33098668 0.44402736 0.24765068 0
0.34819874 0.4424724 0.25152251 0
0.073862806 0.47551537 0.24181594 1.9904196e-38
0.097265512 0.46422201 0.25087827 1.9817394e-38
0.10225248 0.47105303 0.24832229 2.0088586e-38
0.12027699 0.47273111 0.24478967 2.1847857e-38
0.098038137 0.49028945 0.24781109 2.0644997e-38
0.10262278 0.48866886 0.25187799 2.0645358e-38
0.070933491 0.50870919 0.24472103 1.2998855e-38
0.097430855 0.51519114 0.24961293 2.0001788e-38
0.10162001 0.50756031 0.25234351 2.0647162e-38
0.070303671 0.5255934 0.2419384 1.5210125e-38
0.096385792 0.53519899 0.24821094 1.8342623e-38
0.10139408 0.53016222 0.25542995 2.0555325e-38
0.071873888 0.54823053 0.24194609 1.5027533e-38
0.093088254 0.55731171 0.24953452 1.3920108e-38
0.10045663 0.54165721 0.24999274 1.9172756e-38
0.070844613 0.56682938 0.24428301 1.4013729e-38
0.096537448 0.57098502 0.24920468 1.4198137e-38
0.070027992 0.58685178 0.24353597 0
0.097456768 0.59088016 0.24962717 1.7516825e-38
0.069481306 0.61434287 0.24170154 1.6411191e-38
0.09545894 0.61164498 0.25512245 1.7332797e-38
0.068362884 0.62720293 0.24504404 1.7885968e-38
0.096063025 0.63264 0.24972597 1.6315419e-38
0.28574836 -0.1007431 0.26881433 1.4005086e-38
0.30389559 -0.10078596 0.27849054 1.3636645e-38
0.21079491 -0.080130547 0.26895747 0
0.29093963 -0.095282882 0.26512873 1.3544092e-38
0.31239131 -0.089794666 0.27584559 1.2899809e-38
0.3262839 -0.089364424 0.27223295 1.280797e-38
0.3715483 -0.08874543 0.26624221 1.6678385e-38
0.38306886 -0.087683961 0.27094933 1.5387284e-38
0.42037401 -0.081671178 0.27788562 1.3268239e-38
0.21436778 -0.072600067 0.26638585 0
0.23947234 -0.063625127 0.27384523 0
0.25055811 -0.064220905 0.27086005 1.4092211e-38
0.27398241 -0.06279254 0.27246448 1.3266792e-38
0.28217828 -0.064651668 0.26748049 1.3451177e-38
0.37085998 -0.064175509 0.26777384 1.5944787e-38
0.39272285 -0.064611234 0.2743493 1.5482011e-38
0.40437827 -0.069237977 0.27072546 1.3084215e-38
0.23990279 -0.056908607 0.2794604 0
0.24961424 -0.059738882 0.27945474 1.4273017e-38
0.2616002 -0.057730705 0.27348804 1.2990569e-38
0.28104454 -0.058508635 0.26117101 1.3267508e-38
0.36967379 -0.047568776 0.26912868 1.649544e-38
0.38871467 -0.050358001 0.26741681 1.5484537e-38
0.35903823 -0.028582335 0.27063254 1.7602158e-38
0.37099886 -0.023907933 0.2641741 1.8249326e-38
0.38829529 -0.030528128 0.26921427 1.5853321e-38
0.35859495 -0.0077406541 0.26665699 1.8523389e-38
0.37168011 -0.0047194585 0.26631907 1.8341158e-38
0.38836166 -0.011707736 0.26887411 1.6590164e-38
0.35813588 0.012641491 0.26867533 1.870814e-38
0.37404877 0.016472537 0.26574296 1.8893609e-38
0.38762897 0.010467384 0.26967189 1.7234452e-38
0.35702211 0.036000933 0.26946175 1.8799973e-38
0.37257946 0.036166206 0.26501507 1.8156404e-38
0.38623571 0.030216631 0.27217484 1.7695066e-38
0.35760933 0.052942783 0.26941019 1.8707061e-38
0.37292755 0.055643916 0.26771021 1.9173446e-38
0.38623926 0.051230442 0.2723324 1.7325925e-38
0.35676712 0.073710665 0.26967841 1.843011e-38
0.37119648 0.073029689 0.26517606 0
0.38592246 0.072546117 0.26982448 1.8987614e-38
0.35683596 0.093143985 0.26962325 1.8338637e-38
0.37029684 0.091133893 0.2694042 1.3553119e-38
0.38505492 0.091772512 0.2721121 2.065003e-38
0.35492879 0.11350444 0.26990181 2.064895e-38
0.36862075 0.11137906 0.26425099 1.53992e-38
0.38469684 0.11230163 0.27151206 1.9913548e-38
0.35260257 0.13270043 0.26052356 2.0741881e-38
0.37327582 0.13109468 0.26792574 1.3371617e-38
0.38351592 0.13036998 0.2696777 1.945293e-38
0.3507413 0.15274672 0.26436424 2.1572356e-38
0.37003869 0.15315787 0.2654357 1.50297e-38
0.38596243 0.15092427 0.26750058 1.8161833e-38
0.3504025 0.17309242 0.26544866 2.0281262e-38
0.3741872 0.17481217 0.26986906 1.5305203e-38
0.3873404 0.16907285 0.2701748 1.7332071e-38
0.35037416 0.19293785 0.2714678 1.991212e-38
0.36973831 0.19442126 0.26748428 1.3738598e-38
0.38597488 0.18812564 0.2682097 1.6502314e-38
0.3503775 0.20856425 0.27116868 1.9450785e-38
0.37247723 0.21367775 0.272129 1.548851e-38
0.38618478 0.21131946 0.26972666 1.6132812e-38
0.35107866 0.23587227 0.27157885 1.6869313e-38
0.37262893 0.23333085 0.26730719 1.6593773e-38
0.38606468 0.23254344 0.26910222 1.5487079e-38
0.34953737 0.25394762 0.27352813 1.6316494e-38
0.37136295 0.25321847 0.26797467 1.3552397e-38
0.3866767 0.24933639 0.26847178 1.4841708e-38
0.34875906 0.27368635 0.2737335 1.5210506e-38
0.37066078 0.27735487 0.26766676 1.3183255e-38
0.38768312 0.27059469 0.26899695 1.4011588e-38
0.34737575 0.29227725 0.26963663 1.4289988e-38
0.37238869 0.29488462 0.2663075 1.2905952e-38
0.38564658 0.29061615 0.26521981 1.1982556e-38
0.35709694 0.30925837 0.27323478 0
0.36917496 0.31019771 0.27054986 0
0.38583809 0.30952781 0.26777524 0
0.37310103 0.33182901 0.26769346 0
0.38553667 0.33059916 0.26891658 0
0.37344193 0.34831184 0.26850602 0
0.38564867 0.35321265 0.2653572 0
0.37265211 0.36473775 0.26513225 0
0.38391253 0.37297529 0.26640126 0
0.079400793 0.39957657 0.27161062 1.2628608e-38
0.093139574 0.39769325 0.27277109 0
0.37371153 0.39045048 0.26577911 0
0.38387662 0.38612267 0.26597396 0
0.073456794 0.41345263 0.26872125 1.9452909e-38
0.090422615 0.40662172 0.26773924 1.4468576e-38
0.10115537 0.40403974 0.26675844 0
0.17962953 0.41898298 0.26275361 1.2807254e-38
0.19306567 0.4182905 0.26679352 1.2807616e-38
0.21270016 0.4162612 0.27435231 1.2899806e-38
0.23418346 0.41576928 0.27006659 1.2715057e-38
0.25634408 0.41806108 0.26512662 1.2622508e-38
0.2687043 0.41628578 0.27277738 1.2713974e-38
0.29592496 0.41413167 0.27985346 1.2530306e-38
0.30201358 0.41604364 0.26136306 1.2161522e-38
0.32997668 0.41379401 0.27072865 0
0.35043406 0.41397589 0.27665937 0
0.37361121 0.41085634 0.26788357 0
0.3812916 0.41519633 0.27005553 0
0.074908569 0.42595536 0.26616877 2.2864157e-38
0.091118827 0.4242647 0.27279669 2.3417331e-38
0.1549249 0.43566239 0.27833194 1.391467e-38
0.17162876 0.43090686 0.2705507 0
0.18848398 0.43198448 0.27319214 0
0.21085787 0.43377838 0.27254203 0
0.22941965 0.43591282 0.2682443 0
0.25266188 0.43543017 0.27203691 0
0.27399394 0.4367736 0.27276117 0
0.29316801 0.43822047 0.26593983 0
0.30806565 0.43727839 0.27080071 0
0.3396537 0.43759549 0.26688603 0
0.35143337 0.42822608 0.26795352 0
0.36278173 0.43430969 0.26798058 0
0.38072836 0.42801255 0.26999348 0
0.10591285 0.45130357 0.27155226 2.1568028e-38
0.12085784 0.4521521 0.2621783 2.1108841e-38
0.31417796 0.44067514 0.26733842 1.2807598e-38
0.32223666 0.44046888 0.27293468 0
0.34574872 0.44183844 0.26997551 0
0.09987627 0.47225487 0.26431185 2.0092896e-38
0.10394793 0.47092515 0.27402899 2.0460601e-38
0.1216598 0.4752382 0.26462734 2.101809e-38
0.10237807 0.48810768 0.27160484 2.0830826e-38
0.099583976 0.50978422 0.27211249 1.8525931e-38
0.10484272 0.50454479 0.27207309 2.3138949e-38
0.099343792 0.52955914 0.27461749 1.8156788e-38
0.10317528 0.52796358 0.26856637 2.2307751e-38
0.099213906 0.55283248 0.27632967 1.7512142e-38
0.10293983 0.54913378 0.2679776 2.2032969e-38
0.0990474 0.57337958 0.27858114 1.6774937e-38
0.10152301 0.56910121 0.26794037 2.1387242e-38
0.098085709 0.58953691 0.27487716 1.8621012e-38
0.10134672 0.58651662 0.27240065 2.0923747e-38
0.097003222 0.61075413 0.27023005 1.7516103e-38
0.10104628 0.60789245 0.2743603 2.0371654e-38
0.09549246 0.63188642 0.26079446 2.0647528e-38
0.10010861 0.63521206 0.27754033 2.0185825e-38
0.095797911 0.64118427 0.26011431 2.0463136e-38
0.37374118 -0.10285465 0.29854867 1.8335371e-38
0.20947275 -0.082016096 0.28809413 0
0.22289611 -0.087107398 0.28557763 1.5197851e-38
0.3191607 -0.086587749 0.28243884 1.262358e-38
0.36691871 -0.087909997 0.29064825 1.5116476e-38
0.38852489 -0.088523641 0.29140678 1.4375295e-38
0.21769716 -0.074503466 0.28175604 0
0.23215877 -0.06554541 0.29597777 0
0.24378285 -0.064722925 0.28614846 0
0.3676309 -0.064272776 0.28397894 1.640758e-38
0.39257729 -0.062756896 0.29341367 1.6217769e-38
0.23560324 -0.05524287 0.29187801 0
0.24630517 -0.056444734 0.28078544 0
0.36652625 -0.044077732 0.28650731 1.6958947e-38
0.39123955 -0.044620045 0.28933781 1.6958584e-38
0.35961986 -0.027515821 0.28932953 1.7786547e-38
0.36865044 -0.024846425 0.28673843 1.7236616e-38
0.39091873 -0.026555767 0.29106286 1.705042e-38
0.35940909 -0.0081866924 0.28894162 1.8615586e-38
0.36942586 -0.0046754824 0.2885319 1.7144417e-38
0.39068651 -0.005426262 0.29031259 1.8524099e-38
0.35845116 0.012409579 0.28826469 1.8892167e-38
0.370691 0.014929256 0.28973275 1.7236614e-38
0.39029196 0.011879111 0.29182285 1.7418482e-38
0.3577905 0.032596186 0.28682855 1.8891447e-38
0.36760896 0.034636419 0.29187882 1.5670735e-38
0.3885487 0.032163724 0.29169649 1.7878373e-38
0.35776377 0.053225361 0.28735459 1.870742e-38
0.36634669 0.054603655 0.28470588 1.603771e-38
0.38768631 0.052306887 0.2905719 1.8986526e-38
0.35723713 0.073108062 0.28827342 1.8523026e-38
0.37153032 0.070708245 0.28596887 0
0.38850892 0.072100244 0.29050714 1.8986891e-38
0.35672173 0.093537495 0.28784278 1.8337914e-38
0.36615226 0.09594278 0.29126722 1.7242395e-38
0.38632357 0.09151151 0.29219776 2.138759e-38
0.35546583 0.1120301 0.28983948 2.028017e-38
0.36921445 0.11114212 0.2905128 1.6136047e-38
0.38707915 0.11198085 0.29243752 2.1111731e-38
0.35391021 0.13308457 0.2887429 2.1848582e-38
0.36853957 0.13143653 0.29014757 1.6412994e-38
0.3868081 0.13173079 0.2905359 1.9728797e-38
0.35242057 0.15307747 0.28773975 2.1756386e-38
0.37295184 0.1507595 0.2917977 1.3740397e-38
0.38773903 0.15106361 0.29064351 1.7240595e-38
0.35267353 0.17334533 0.28781301 2.1019184e-38
0.36900014 0.17181453 0.29092067 1.5582512e-38
0.38841614 0.17304969 0.28888908 1.7885245e-38
0.35230979 0.19532736 0.29639235 2.0096872e-38
0.37218484 0.194465 0.28837141 1.4936061e-38
0.38815996 0.19304918 0.28874147 1.659415e-38
0.35131297 0.21362865 0.29863775 1.9358945e-38
0.3684144 0.21365857 0.29158729 1.4014464e-38
0.38917717 0.2141927 0.29115486 1.6317197e-38
0.35166854 0.23331846 0.29902151 1.7330644e-38
0.37189266 0.23130865 0.28838736 1.5764732e-38
0.38842732 0.23299974 0.2899076 1.5947696e-38
0.35088485 0.25343072 0.299849 1.6961863e-38
0.36977065 0.25294709 0.28953707 1.2999948e-38
0.38729209 0.25340626 0.2907646 1.5486719e-38
0.34942362 0.2732012 0.29905853 1.5670761e-38
0.36843529 0.27547386 0.28940177 1.410593e-38
0.38748464 0.27279025 0.28998515 1.4380367e-38
0.35236239 0.2929132 0.29077324 0
0.36980915 0.29713854 0.28342363 0
0.38608041 0.29247707 0.28966573 1.2351342e-38
0.35813478 0.31144655 0.29044759 0
0.37309232 0.314511 0.28522271 0
0.38547918 0.31354231 0.29060912 0
0.37360936 0.32279959 0.28997272 0
0.38567367 0.33292234 0.28746691 0
0.37352651 0.34689137 0.28765997 0
0.38619995 0.35080516 0.29004255 0
0.37469319 0.36344194 0.28486034 0
0.38507691 0.37287462 0.28806588 0
0.091383472 0.39641368 0.29417133 1.3918283e-38
0.11143899 0.3927049 0.28514928 1.3452988e-38
0.37111229 0.38678467 0.28844902 0
0.38610438 0.39116874 0.29115278 0
0.074516416 0.41074303 0.28901288 1.9638021e-38
0.089014798 0.40873808 0.28717887 1.8528431e-38
0.10015491 0.40014979 0.28557014 0
0.15083189 0.41360691 0.2908169 0
0.17323452 0.41847634 0.28187579 1.3084201e-38
0.18435773 0.41706067 0.28516957 1.3084198e-38
0.20683846 0.41512704 0.29250818 1.3175672e-38
0.22639304 0.41331482 0.29919544 1.3083834e-38
0.24786681 0.41423002 0.28903651 1.2899448e-38
0.26929855 0.41400516 0.29261586 1.2807609e-38
0.29051167 0.41337681 0.29935217 1.2806886e-38
0.31623104 0.41280538 0.28780195 1.2161879e-38
0.33104393 0.41238526 0.29081786 0
0.34827563 0.4150646 0.29054013 0
0.37175646 0.4112525 0.28695074 0
0.38289469 0.41047692 0.28843233 0
0.074288934 0.42480797 0.28988311 1.9820258e-38
0.08183831 0.42391276 0.28590053 2.2032948e-38
0.1123679 0.43906793 0.28695235 1.8985104e-38
0.13484123 0.43000436 0.29140446 1.9451476e-38
0.14978528 0.43375075 0.29102457 1.2716851e-38
0.17064279 0.43098482 0.29202217 0
0.19277312 0.43135437 0.29419413 0
0.21172255 0.43315953 0.28948289 0
0.2335126 0.43288076 0.28828132 0
0.24961147 0.43356267 0.28951353 0
0.27206618 0.4357177 0.29368421 0
0.29059917 0.43607193 0.29040039 0
0.31049278 0.43761703 0.28991511 0
0.3306686 0.43716413 0.29424202 0
0.352175 0.42834055 0.28686512 0
0.36862618 0.42909515 0.28923586 0
0.1078801 0.4525401 0.29118493 1.7236613e-38
0.34121495 0.44040817 0.28743643 0
0.36172152 0.44268149 0.2877495 0
0.10858063 0.46930811 0.28914461 1.7604679e-38
0.10873761 0.48886037 0.28998503 1.8620988e-38
0.10869504 0.50793386 0.29177505 1.6961113e-38
0.10558121 0.53052264 0.2892642 1.6776009e-38
0.10554485 0.54696977 0.29124391 1.6592339e-38
0.10446487 0.5704999 0.29143697 1.7239158e-38
0.099626541 0.5867328 0.28623807 1.4837029e-38
0.10398629 0.59064931 0.29394346 1.6686704e-38
0.10385673 0.60622704 0.29362291 1.7056568e-38
0.36617032 0.60730004 0.29791543 1.4841679e-38
0.10381529 0.62809253 0.29603651 1.7422124e-38
0.35964087 0.63729459 0.29339027 2.2955993e-38
0.36421776 0.62095416 0.29992306 1.447361e-38
0.3654241 0.64118677 0.29958689 2.1755651e-38
0.36947507 -0.10254583 0.3129155 1.5943706e-38
0.3907879 -0.10053678 0.31711781 1.4463526e-38
0.21689767 -0.087771282 0.30358738 1.3080576e-38
0.36878225 -0.085098028 0.31456783 1.557745e-38
0.38790709 -0.085340887 0.31592903 1.5668566e-38
0.23003832 -0.071089908 0.31343779 0
0.37011984 -0.067811146 0.30928734 1.4471827e-38
0.39363137 -0.062868096 0.3128334 1.5022477e-38
0.2179791 -0.045604002 0.3142876 0
0.23228401 -0.05539228 0.30851319 0
0.36778396 -0.045860201 0.30867392 1.6130628e-38
0.39342368 -0.046392564 0.31117275 1.5300866e-38
0.35967079 -0.026714796 0.30378115 1.8062765e-38
0.36778426 -0.027224183 0.30874342 1.6867833e-38
0.39186618 -0.027201105 0.30915922 1.640577e-38
0.35926703 -0.0073507251 0.31077522 1.8708135e-38
0.36673582 -0.0054418743 0.30868995 1.5394509e-38
0.39117736 -0.0091163926 0.30996186 1.686603e-38
0.35906374 0.012197895 0.31221971 1.8984003e-38
0.3670029 0.014045614 0.30935556 1.5394507e-38
0.3900193 0.014228731 0.31033289 1.7418479e-38
0.35923156 0.031967096 0.3127856 1.898364e-38
0.36732447 0.032955714 0.30888656 1.5393785e-38
0.3901864 0.033968352 0.3094849 1.7510672e-38
0.35816994 0.053274676 0.30899471 1.8799251e-38
0.36820135 0.054360371 0.30681688 1.696437e-38
0.38966843 0.054189056 0.30979201 1.7879459e-38
0.35738289 0.072674938 0.30872765 1.8799248e-38
0.36865193 0.0703879 0.30697674 1.3553842e-38
0.38997784 0.0737231 0.31139663 1.8064939e-38
0.29386616 0.089605533 0.31073254 0
0.35656738 0.092483796 0.30685306 1.8338273e-38
0.36958534 0.091401935 0.31078944 1.4292493e-38
0.38842115 0.092167899 0.31068763 2.0004658e-38
0.29789096 0.10981925 0.31101108 0
0.30149227 0.11874889 0.30717066 0
0.35506499 0.11236502 0.30579194 2.0926258e-38
0.37068132 0.11185272 0.30920097 1.521518e-38
0.38892612 0.11327132 0.31134534 2.0465275e-38
0.30189621 0.13221255 0.31216541 0
0.35420063 0.13218227 0.3054263 2.2125167e-38
0.37404108 0.12726918 0.30988541 1.3095398e-38
0.38761631 0.13470453 0.31105071 1.9267457e-38
0.40105981 0.13356382 0.31084272 1.3555274e-38
0.30473655 0.14518827 0.31289849 0
0.3531175 0.15225402 0.30622423 2.1848582e-38
0.37251654 0.15234756 0.311472 1.3464176e-38
0.38906851 0.15381525 0.30964863 1.8069274e-38
0.30659822 0.17125142 0.31608051 0
0.3529048 0.17226967 0.30571833 2.1111377e-38
0.37340176 0.16828972 0.30994046 1.4938233e-38
0.38888165 0.17247683 0.31082314 1.7055122e-38
0.31326324 0.19314766 0.31090748 0
0.35263273 0.19178064 0.30641621 2.0373455e-38
0.37168804 0.18795541 0.31304973 1.4108832e-38
0.38953185 0.19283387 0.31006151 1.7607574e-38
0.31325895 0.20733117 0.31288549 0
0.3515659 0.21265648 0.30942458 1.9542976e-38
0.373761 0.20867085 0.30796447 0
0.38819963 0.21170144 0.30844629 1.6962202e-38
0.31412074 0.22720608 0.31597212 0
0.35191777 0.23253506 0.30962545 1.751467e-38
0.36919761 0.23175539 0.31046116 1.1802125e-38
0.38909689 0.23371546 0.30871606 1.6224641e-38
0.31471354 0.25257695 0.31698841 0
0.35197437 0.24512622 0.30925307 1.7238437e-38
0.37189627 0.25298214 0.30942482 1.3737508e-38
0.38911447 0.25330395 0.31119514 1.4011949e-38
0.35286078 0.2698175 0.31064007 1.5579994e-38
0.37607259 0.27185521 0.30420405 1.419704e-38
0.38948554 0.27205163 0.31069335 1.3826109e-38
0.35260808 0.29388541 0.31168136 0
0.37498999 0.29557365 0.30816874 0
0.38759398 0.29375556 0.31017506 1.1982555e-38
0.35178024 0.30866957 0.31266129 0
0.37464458 0.31411487 0.30301368 0
0.38750789 0.3147355 0.31026077 0
0.31975639 0.32166994 0.31985518 0
0.35635388 0.32411462 0.31209719 0
0.37457126 0.32998365 0.30779356 0
0.38778412 0.33271298 0.30933926 0
0.3761127 0.34908614 0.30610615 0
0.38970476 0.3545824 0.31050372 0
0.37586337 0.36778736 0.30713439 0
0.38958901 0.37174231 0.30793032 0
0.092259094 0.39586967 0.31487855 1.4749845e-38
0.11146615 0.38968831 0.31235814 1.3086014e-38
0.12230017 0.39085996 0.31917983 0
0.37576556 0.3879312 0.30655247 0
0.38688806 0.39170176 0.30845308 0
0.077118188 0.41021532 0.31259713 1.8901176e-38
0.088895455 0.40710965 0.31138432 1.7144416e-38
0.10706665 0.40079069 0.31360483 0
0.15327016 0.41350862 0.30747485 1.3642436e-38
0.172038 0.41472492 0.306835 0
0.20955884 0.41286165 0.31413475 1.3268228e-38
0.23413892 0.41190222 0.30530879 1.3083834e-38
0.24424979 0.41205594 0.30551401 1.3175308e-38
0.26538968 0.41240507 0.31241158 1.3083474e-38
0.28599048 0.41143993 0.31784806 1.2899088e-38
0.31113431 0.4116666 0.30615175 1.2622136e-38
0.32767242 0.41016442 0.31216675 1.1977841e-38
0.35472158 0.41401109 0.30963004 0
0.37547672 0.4091323 0.30951524 0
0.3842102 0.41121879 0.3094871 0
0.068795525 0.42950967 0.30259669 2.2494292e-38
0.088795245 0.42931515 0.30912 1.8714628e-38
0.11828104 0.43760112 0.31049699 1.8798908e-38
0.1388894 0.43714133 0.30550569 1.8619194e-38
0.15075931 0.42810732 0.31103003 1.5762199e-38
0.17132729 0.42839551 0.31030625 0
0.19213954 0.43026084 0.31221175 0
0.21304633 0.43262973 0.30986649 0
0.23176511 0.4329454 0.31077152 0
0.25016394 0.43320331 0.30951482 0
0.26660872 0.43233046 0.31311604 0
0.29084972 0.43402559 0.30872986 0
0.30893296 0.43512684 0.30568448 0
0.33114251 0.43674475 0.3126626 0
0.3534641 0.43272868 0.30916587 0
0.36620656 0.43707353 0.3075093 0
0.095023714 0.44361994 0.31098223 1.5297621e-38
0.10112536 0.44581836 0.31364545 1.6773838e-38
0.33027858 0.44186044 0.31652555 0
0.34519106 0.44266206 0.30189776 0
0.12341464 0.50262249 0.30015144 1.5211175e-38
0.11737656 0.53092897 0.30217788 1.3368355e-38
0.12009142 0.55118263 0.30404043 1.3185772e-38
0.11064489 0.57119375 0.30038238 1.438109e-38
0.12331086 0.56745327 0.30757156 1.3187212e-38
0.10941936 0.58327371 0.30195963 1.521193e-38
0.12279144 0.59690219 0.30731967 1.4479394e-38
0.11993875 0.61077523 0.30772063 1.4664504e-38
0.128846 0.60806113 0.31077522 1.3740389e-38
0.36756808 0.60703146 0.30092186 1.4935323e-38
0.3986218 0.60804182 0.30156451 2.2301599e-38
0.11223041 0.62621611 0.30653584 1.6226093e-38
0.36622119 0.63004476 0.30911565 1.4658005e-38
0.39914423 0.62864476 0.30304244 2.1293955e-38
0.40065259 0.62085879 0.31261349 2.2586137e-38
0.36806703 0.65014112 0.30639243 1.4840954e-38
0.39926022 0.65758824 0.30552173 2.2401744e-38
0.40144575 0.64629316 0.30701885 2.2678328e-38
0.36729312 0.66080451 0.31641689 1.3552018e-38
0.34350264 0.68441296 0.30671 0
0.36580017 0.68323576 0.31240803 0
0.35676938 0.70097363 0.30972528 0
0.36492133 0.7159363 0.30541605 1.2537885e-38
0.29612222 0.72943944 0.31746736 1.2264538e-38
0.30663025 0.73103094 0.31543666 1.2262019e-38
0.34065345 0.73037434 0.31718916 0
0.36179334 0.72549069 0.31019044 0
0.36792803 -0.10296876 0.32411587 1.3920102e-38
0.38384345 -0.1081435 0.33170146 1.5663504e-38
0.21647137 -0.09020637 0.3308441 0
0.22713062 -0.084998906 0.33000946 0
0.37042114 -0.08663924 0.32639131 1.5301945e-38
0.3903656 -0.087881021 0.33593518 1.447075e-38
0.2327916 -0.066810958 0.3307032 0
0.24009314 -0.077087998 0.33545285 0
0.37293649 -0.069325842 0.32820719 1.7144773e-38
0.39499837 -0.063546285 0.33274224 1.5022476e-38
0.21209538 -0.047812909 0.32861763 0
0.23389153 -0.058770396 0.32650965 0
0.36550862 -0.046166565 0.32926553 1.5117204e-38
0.39081684 -0.04618055 0.32782128 1.6221739e-38
0.40010273 -0.045752637 0.32699528 1.8338996e-38
0.19761004 -0.037316471 0.33982 0
0.20656909 -0.037065744 0.33531609 0
0.36555085 -0.027060354 0.32996833 1.5485985e-38
0.39199671 -0.027121387 0.32814217 1.6958581e-38
0.36566702 -0.0069119008 0.33124515 1.5669659e-38
0.39193425 -0.0069521083 0.32836032 1.7234446e-38
0.35948241 0.011925698 0.33299619 1.8891803e-38
0.36643916 0.014030165 0.33171776 1.4748788e-38
0.3912411 0.013002583 0.33023971 1.7142249e-38
0.3580015 0.033014782 0.33195183 1.8983275e-38
0.36521363 0.033767901 0.33141196 1.4471845e-38
0.39254907 0.033032265 0.33136469 1.6772748e-38
0.35795221 0.049754187 0.33031258 1.7141536e-38
0.36465049 0.055935282 0.33324575 1.4287454e-38
0.3922807 0.053350009 0.32992855 1.7049331e-38
0.35782099 0.074226737 0.33120972 1.6956789e-38
0.36707991 0.072728455 0.32941502 1.3275819e-38
0.39270806 0.074030377 0.33085725 1.7233722e-38
0.28965285 0.087049283 0.33472231 0
0.35639304 0.092992947 0.328363 1.8338635e-38
0.36819074 0.093280531 0.32911712 1.290956e-38
0.39211294 0.09344466 0.32961568 1.8158209e-38
0.29461363 0.10843417 0.33283377 0
0.35536927 0.1127843 0.33008412 2.1479434e-38
0.36973968 0.11162473 0.33001101 1.318687e-38
0.39087567 0.11286616 0.33086783 1.9634428e-38
0.29826531 0.13028112 0.32887441 0
0.35663828 0.13084921 0.33081013 2.0005399e-38
0.37266493 0.13223986 0.32859713 1.2818809e-38
0.39202014 0.13418522 0.32876399 1.8067101e-38
0.30052504 0.1591588 0.33223107 0
0.35449356 0.15061495 0.33248064 2.1018099e-38
0.37373644 0.15124254 0.32859787 1.2450023e-38
0.39187065 0.15229537 0.32809404 1.7790517e-38
0.30268621 0.17636855 0.32819742 0
0.35413107 0.17279391 0.32984549 1.6688167e-38
0.37211487 0.1748644 0.32756364 1.2634052e-38
0.39003819 0.1723343 0.33071125 1.5211204e-38
0.30800781 0.18915969 0.3229017 0
0.35267836 0.19624367 0.32912451 1.7148059e-38
0.37196493 0.19119808 0.32770234 1.3002116e-38
0.39267665 0.19154097 0.3275359 1.5578906e-38
0.30840999 0.20483354 0.32495716 0
0.35088968 0.21631745 0.32933137 1.6134626e-38
0.37330219 0.21236084 0.32688126 1.2357108e-38
0.39012453 0.21262506 0.32788438 1.6592697e-38
0.30874628 0.23255086 0.33179188 0
0.35270697 0.23388742 0.32899851 1.4936075e-38
0.37716052 0.23035663 0.33099806 0
0.38965213 0.23249432 0.32788539 1.6501224e-38
0.40143695 0.23535091 0.33310506 1.1982181e-38
0.31228432 0.25155279 0.32973772 0
0.35403749 0.25345331 0.3244209 1.548852e-38
0.37717041 0.25077605 0.33279657 0
0.38968009 0.25167245 0.32874006 1.5209402e-38
0.40296769 0.2551069 0.33637816 0
0.31201935 0.26929691 0.33101946 0
0.35263759 0.27321994 0.32544371 1.4382172e-38
0.37602413 0.27152869 0.3305949 0
0.38942108 0.27371395 0.32754862 1.4564396e-38
0.31625146 0.29459012 0.3294028 0
0.35154936 0.29302245 0.32751441 0
0.37372053 0.29244837 0.33205673 0
0.3876248 0.29407799 0.33004755 1.3457319e-38
0.31712067 0.31166315 0.32797098 0
0.35098153 0.30978477 0.32773411 0
0.3755165 0.3106879 0.32820493 0
0.38824952 0.31246156 0.32983327 0
0.31742966 0.33362389 0.33396676 0
0.32003623 0.33527133 0.32166073 0
0.37413865 0.32945132 0.32888046 0
0.3901355 0.33464164 0.32749212 0
0.31680226 0.35403156 0.32967085 0
0.37536621 0.34619796 0.328053 0
0.38947842 0.35390422 0.3283546 0
0.31774861 0.36513099 0.32408679 0
0.3749854 0.37378693 0.33153817 0
0.3875992 0.37041348 0.32838103 0
0.092435367 0.39597613 0.33204415 1.3275436e-38
0.10984471 0.39103428 0.32785383 1.2901985e-38
0.37530518 0.38978085 0.33038729 0
0.38502586 0.39303252 0.32806134 0
0.075530231 0.41552493 0.32519847 2.1483021e-38
0.091488078 0.40864503 0.32820606 1.9544027e-38
0.15992378 0.41288894 0.3295753 1.6869646e-38
0.17454115 0.41217121 0.32972449 0
0.18756291 0.41017446 0.33641648 0
0.21222676 0.41126221 0.3358444 1.3636285e-38
0.22374153 0.41034409 0.33015776 1.3544086e-38
0.24038701 0.41010603 0.32521886 1.3359696e-38
0.26942253 0.4101997 0.33428317 1.3267497e-38
0.30644715 0.40906137 0.32787645 1.2898717e-38
0.32505712 0.40823215 0.3310954 1.2437023e-38
0.35133076 0.41298953 0.33112165 0
0.36916766 0.41369316 0.33078635 0
0.3855435 0.41182077 0.32980573 0
0.070724174 0.42800802 0.32292414 2.2032233e-38
0.087936282 0.42956778 0.33119684 2.0744378e-38
0.10399979 0.43998542 0.32643685 2.3509872e-38
0.1217052 0.43615678 0.32845736 1.8798169e-38
0.15449519 0.42962897 0.3331179 1.7328081e-38
0.17305772 0.42760691 0.32744002 0
0.18799432 0.42719918 0.33442441 0
0.20998698 0.42939174 0.33202669 0
0.23308527 0.43189526 0.33060601 0
0.25027132 0.43141124 0.33033055 0
0.27448523 0.43255043 0.33001435 0
0.29186174 0.43309051 0.32865182 0
0.31221715 0.43371093 0.32902262 0
0.33282971 0.43523484 0.33202776 0
0.35030729 0.43216774 0.33106267 0
0.36415359 0.4347198 0.32810548 0
0.098249719 0.44114101 0.3346265 1.2627557e-38
0.10426581 0.44633627 0.33011165 1.7234811e-38
0.37378225 0.6175493 0.33038899 1.6406849e-38
0.38028333 0.6080122 0.32918942 1.7695427e-38
0.37340355 0.62850499 0.33259666 1.6499405e-38
0.40235692 0.62492287 0.32368141 2.3231501e-38
0.37274024 0.65067679 0.3303816 1.6683802e-38
0.38043514 0.64716291 0.3328948 2.074114e-38
0.4029513 0.6419822 0.3223702 2.2954915e-38
0.37007865 0.67012233 0.33220121 1.6683801e-38
0.40524855 0.66802472 0.32866722 2.2586493e-38
0.36847955 0.69370365 0.32923943 1.3089244e-38
0.37042305 0.70864248 0.32508355 1.1889627e-38
0.2724067 0.7354793 0.32540035 1.4843509e-38
0.28816104 0.7317034 0.33148557 1.2541128e-38
0.31069267 0.72932351 0.32580006 1.1894314e-38
0.32796779 0.72946298 0.33870259 1.2541487e-38
0.35213467 0.73246533 0.33390093 0
0.36829874 0.72659725 0.33030143 0
0.2472285 0.74551773 0.32736605 1.6318649e-38
0.26975507 0.7443766 0.33553213 1.5395612e-38
0.28393468 0.7404623 0.33179611 1.5302688e-38
0.30524236 0.74619341 0.33472061 1.5302687e-38
0.33469507 0.74495733 0.33385098 1.6502317e-38
0.36885655 0.74552155 0.33532766 1.3827547e-38
0.36886939 -0.10669993 0.34977365 1.2903785e-38
0.38772136 -0.10649955 0.35691017 1.3727755e-38
0.24467203 -0.09490554 0.34399691 1.3079874e-38
0.36919916 -0.090529934 0.35162503 1.4749862e-38
0.38681322 -0.091024771 0.34819359 1.4746604e-38
0.2336072 -0.071961708 0.34603879 0
0.36726224 -0.071530931 0.34852019 1.4105573e-38
0.39098817 -0.068546116 0.35150737 1.4746242e-38
0.40500766 -0.066506676 0.34960401 1.5389455e-38
0.19800526 -0.047142513 0.35304701 0
0.20250776 -0.049621165 0.34669012 0
0.3647975 -0.049512975 0.3505697 1.4377476e-38
0.39086771 -0.047919046 0.3457379 1.6498322e-38
0.4018411 -0.045942117 0.35025734 1.8062765e-38
0.3648327 -0.028618932 0.3474229 1.4932458e-38
0.38942927 -0.029109672 0.3472513 1.7511389e-38
0.40119141 -0.026535925 0.35014543 1.870777e-38
0.36487371 -0.0073279929 0.34858346 1.5669296e-38
0.39553437 -0.0089909248 0.35019863 1.6405047e-38
0.40040374 -0.0071906373 0.35581249 1.8891806e-38
0.35907355 0.012974571 0.35141522 1.8983274e-38
0.36667842 0.012726015 0.34986386 1.4748427e-38
0.39459541 0.012266204 0.3493807 1.6589076e-38
0.40104398 0.013687767 0.35538855 1.9167662e-38
0.35802466 0.033561483 0.35138249 1.8890718e-38
0.36865112 0.032593064 0.34860647 1.4748787e-38
0.39504462 0.03260304 0.34909028 1.6957137e-38
0.40074739 0.032201864 0.35552928 1.91673e-38
0.35810521 0.053292066 0.3525537 1.8707044e-38
0.3695147 0.05250375 0.34975511 1.4748427e-38
0.39516643 0.053379059 0.35124665 1.7417755e-38
0.28353545 0.078017756 0.35128158 0
0.35715711 0.072747216 0.35227796 1.8706331e-38
0.36826038 0.072143279 0.34609985 1.3367656e-38
0.39474529 0.073418461 0.35202414 1.7417393e-38
0.28540137 0.089907095 0.3540377 0
0.35858667 0.094989106 0.34598091 1.6959691e-38
0.36816752 0.091628522 0.34828335 1.382972e-38
0.39524776 0.093695879 0.35331133 1.7325559e-38
0.29116249 0.10857782 0.34435964 0
0.35784674 0.11486398 0.34951624 1.7701599e-38
0.37304726 0.1093419 0.34788957 0
0.39375088 0.11165515 0.35096976 1.806421e-38
0.4006739 0.11161481 0.35894287 1.4468935e-38
0.29306614 0.13651125 0.34790608 0
0.35691878 0.13469732 0.34966084 1.7977826e-38
0.37361383 0.12918854 0.34805661 1.2540418e-38
0.39531571 0.13372216 0.35082525 1.677419e-38
0.40047953 0.12924513 0.34190288 1.3279413e-38
0.29352224 0.15188645 0.35159618 0
0.35465407 0.15613346 0.3443836 1.8806495e-38
0.37430087 0.14890142 0.34724712 0
0.39380598 0.15302706 0.34828773 1.6037708e-38
0.40021798 0.15085965 0.35609376 1.3462007e-38
0.29607278 0.17301738 0.34967855 0
0.35455582 0.17330284 0.35070655 1.6871477e-38
0.37307149 0.17108732 0.35037035 0
0.39234617 0.17235206 0.35054415 1.6406494e-38
0.40123186 0.17288578 0.34664217 1.2810135e-38
0.30059859 0.18236758 0.34000069 0
0.35330492 0.19529065 0.34984675 1.6686361e-38
0.37069434 0.19316101 0.34917685 0
0.39002097 0.19118197 0.35037678 1.4932808e-38
0.40285221 0.19287884 0.34861332 1.207293e-38
0.30177218 0.2104416 0.34423995 0
0.35400462 0.21353188 0.34659949 1.5949512e-38
0.37664673 0.21178961 0.35355684 0
0.39211893 0.21169685 0.34823674 1.5393425e-38
0.40398657 0.21244387 0.35087773 0
0.30145755 0.22622862 0.35096574 0
0.35224363 0.23269235 0.34734127 1.4935721e-38
0.37692079 0.23919886 0.34426641 0
0.39053392 0.23228474 0.3484869 1.410305e-38
0.40416545 0.23036247 0.35440594 1.2533548e-38
0.30194446 0.24463598 0.35431826 0
0.35237616 0.25294986 0.35010827 1.4841354e-38
0.37689927 0.25148422 0.35113755 0
0.39021838 0.25326821 0.34856775 1.4655504e-38
0.40607393 0.25190976 0.35550678 0
0.30227003 0.26291671 0.35667947 0
0.35153541 0.27434933 0.34830746 1.3828285e-38
0.37603274 0.26402768 0.35152391 0
0.3900587 0.27238742 0.35168964 1.4010853e-38
0.40067026 0.26706558 0.35089993 1.2166222e-38
0.30909795 0.28860605 0.34381044 0
0.349691 0.29388556 0.34873015 0
0.37707692 0.28851545 0.34432191 0
0.38966411 0.29161108 0.3520833 1.2442443e-38
0.30995405 0.3101581 0.34933764 0
0.35092488 0.30969471 0.34397447 0
0.37665948 0.30761105 0.34662637 0
0.38822889 0.31149068 0.34914526 0
0.40077028 0.31576249 0.35399953 1.1883482e-38
0.30962497 0.33438265 0.35599875 0
0.37537861 0.32606041 0.34878904 0
0.39017338 0.33238202 0.35193628 0
0.40048924 0.33668947 0.35571632 1.1790565e-38
0.30690867 0.35044193 0.35471258 0
0.37628913 0.3526766 0.34703645 0
0.39071172 0.35311589 0.34862491 0
0.30484843 0.36226034 0.3587279 0
0.37527066 0.36656585 0.35358775 0
0.38794035 0.37340426 0.34680501 0
0.40285981 0.37619311 0.35852271 0
0.093972139 0.39528948 0.34997055 0
0.10654197 0.39240566 0.34942394 1.6038071e-38
0.12379771 0.38696957 0.34273529 0
0.37457395 0.38692051 0.34683678 0
0.38732412 0.39371842 0.35053053 0
0.076371357 0.4139055 0.34111252 2.1391185e-38
0.089834206 0.40852004 0.34781 1.825257e-38
0.10038222 0.40185261 0.34188938 2.341805e-38
0.17426443 0.41393438 0.34690893 1.3272204e-38
0.18488324 0.41117653 0.35429919 0
0.20861422 0.40896043 0.35268494 0
0.22800414 0.40830153 0.34745282 0
0.25274888 0.40721682 0.3525573 1.1794187e-38
0.27079698 0.40809447 0.35567924 1.3358978e-38
0.29690811 0.40935963 0.34239018 1.3174941e-38
0.31199381 0.40717882 0.34859279 1.2898354e-38
0.33800381 0.40541297 0.35705057 1.2068596e-38
0.3545351 0.41253644 0.34695789 0
0.3683365 0.41022682 0.35004675 0
0.38664451 0.40978372 0.34883469 0
0.07257098 0.42757967 0.34272084 2.1108842e-38
0.084177196 0.42178446 0.35058039 2.1389393e-38
0.10208701 0.43676275 0.35181388 1.6320426e-38
0.12686065 0.43307143 0.35223424 1.4549983e-38
0.1533252 0.43084088 0.34927624 1.3823204e-38
0.16895179 0.42711681 0.35076362 1.2625008e-38
0.18721671 0.42585528 0.35282266 0
0.20946231 0.42725697 0.34847012 0
0.22832899 0.42937261 0.35036418 0
0.24777928 0.4301002 0.35171586 0
0.26788011 0.43074399 0.34912956 0
0.29014787 0.43164107 0.35214013 0
0.3086172 0.43277648 0.34976399 0
0.3321889 0.43285009 0.3502509 0
0.34915614 0.43099651 0.34831235 0
0.36723557 0.43250647 0.3475776 0
0.39620787 0.434035 0.34704888 0
0.40850553 0.43121681 0.35281268 0
0.435642 0.43131745 0.35440424 0
0.46660721 0.43113965 0.35758716 0
0.10654944 0.44343707 0.35401288 1.6404691e-38
0.37431306 0.61526901 0.35057339 1.585512e-38
0.40545738 0.61254096 0.34981611 2.3508807e-38
0.37419981 0.62882936 0.35240626 1.6591964e-38
0.4055388 0.62717193 0.35186005 2.3416252e-38
0.37653446 0.6519416 0.35320348 1.9174881e-38
0.38202423 0.64059937 0.35303658 1.9635496e-38
0.40569457 0.65063053 0.34463733 2.304747e-38
0.37389028 0.67187345 0.34959379 1.7423878e-38
0.40732419 0.6720944 0.34907293 2.2955634e-38
0.37588024 0.68458736 0.35282901 1.751428e-38
0.37365231 0.71286452 0.34441921 1.4102322e-38
0.31085974 0.72925067 0.34021056 0
0.33295667 0.73543233 0.35175759 1.4573746e-38
0.37250516 0.7349124 0.35006651 0
0.29779387 0.75780582 0.35914761 2.0839463e-38
0.30964813 0.75024337 0.35114855 1.6597746e-38
0.32475585 0.74428385 0.34998339 1.6230761e-38
0.37476316 0.74335951 0.35062987 1.3365485e-38
0.28748095 0.76879519 0.35147902 1.7980688e-38
0.30152738 0.76024771 0.35220188 1.9178507e-38
0.39646131 0.77473927 0.35575265 1.623291e-38
0.27842924 0.7831409 0.3480545 2.0379933e-38
0.39595106 0.7813254 0.35283762 1.5493545e-38
0.40110964 0.78802133 0.35300678 1.8809e-38
0.37241098 -0.10821395 0.3696079 1.2166575e-38
0.39087647 -0.10826929 0.37561902 0
0.19479834 -0.084212236 0.37998196 0
0.20563045 -0.086850189 0.37282139 0
0.37204778 -0.093286835 0.36992192 1.2721196e-38
0.39021462 -0.09372966 0.36791021 1.2626463e-38
0.12179787 -0.072312437 0.3716152 0
0.20736691 -0.075756907 0.37451893 0
0.3721959 -0.072975524 0.37238711 1.4472183e-38
0.39468384 -0.067915402 0.36825913 1.3087441e-38
0.40459189 -0.073183708 0.36946765 1.4649361e-38
0.19924794 -0.049471814 0.37251174 0
0.20121454 -0.049492255 0.36117524 0
0.36756885 -0.052577905 0.37059498 1.4654422e-38
0.39610291 -0.048757762 0.36801571 1.3548781e-38
0.40213859 -0.051957633 0.37440971 1.4746972e-38
0.36602339 -0.028317556 0.36965102 1.5760411e-38
0.39617687 -0.029568221 0.36641595 1.4838442e-38
0.40259928 -0.032249261 0.37362444 1.7050059e-38
0.36730939 -0.0095949229 0.37027013 1.5944798e-38
0.39279762 -0.011032664 0.36826354 1.640432e-38
0.40175456 -0.0082306322 0.37403095 1.7050774e-38
0.35943645 0.012288823 0.37071574 1.8707049e-38
0.36556834 0.011456702 0.36997053 1.4655156e-38
0.39297271 0.0084747374 0.37112713 1.6312486e-38
0.40147054 0.016383473 0.37231404 1.7694339e-38
0.35962272 0.031295259 0.37076318 1.8707047e-38
0.36620897 0.032223254 0.37058711 1.4654793e-38
0.39517984 0.030023247 0.37150478 1.6588713e-38
0.40241003 0.033729449 0.37081355 1.8798881e-38
0.35939193 0.052016355 0.37335551 1.7140815e-38
0.36972198 0.048740659 0.36890125 1.4655515e-38
0.39613706 0.050144043 0.37315986 1.6035542e-38
0.40081567 0.055684242 0.37331408 1.695569e-38
0.27612159 0.074678779 0.37303099 0
0.28225914 0.078802094 0.36035454 0
0.35882351 0.071404427 0.3689841 1.6127395e-38
0.37288254 0.067646965 0.3674162 1.4747708e-38
0.39544162 0.0722389 0.37308934 1.6403603e-38
0.40079635 0.071098089 0.37296 1.6587269e-38
0.27668941 0.091252476 0.37757486 0
0.358307 0.093899339 0.37022859 1.7696162e-38
0.37852636 0.088060379 0.36437303 1.484062e-38
0.3918564 0.090800874 0.37489828 1.631249e-38
0.40218732 0.091495082 0.37365392 1.6495431e-38
0.27781329 0.10745272 0.37959868 0
0.28545016 0.11445446 0.36287379 0
0.35700428 0.11340714 0.37240133 1.8529538e-38
0.37992042 0.10793515 0.36653727 1.4195607e-38
0.39250156 0.11016764 0.37546381 1.6128098e-38
0.40257263 0.1115465 0.3750816 1.6127009e-38
0.28546989 0.13008662 0.36822319 0
0.35651779 0.13443933 0.37000746 1.8345156e-38
0.3938812 0.13247216 0.37221527 1.6035536e-38
0.40224481 0.12934278 0.37008303 1.3643506e-38
0.2853359 0.15707734 0.37321535 0
0.35491306 0.15405273 0.37105671 1.7607593e-38
0.37606472 0.15441382 0.36519289 0
0.39048606 0.15188785 0.36919868 1.4193797e-38
0.4014568 0.15026265 0.36883128 1.3548788e-38
0.28629199 0.17573839 0.37635902 0
0.3541899 0.17397305 0.37141711 1.6870746e-38
0.37409154 0.17293672 0.36962122 0
0.3943336 0.17071755 0.36894935 1.4192711e-38
0.40428212 0.17071351 0.36681965 1.2257679e-38
0.29129633 0.19451436 0.36632568 0
0.3533898 0.19376622 0.37133104 1.6686718e-38
0.37460393 0.19059001 0.37461784 0
0.39127213 0.19009188 0.37093103 1.3089613e-38
0.40526554 0.19022754 0.3683168 0
0.29256868 0.20572549 0.36795452 0
0.35273787 0.21482453 0.36841163 1.5396705e-38
0.3753252 0.21084188 0.37103888 0
0.39115691 0.20957452 0.3688069 1.3456591e-38
0.40412569 0.20928796 0.36884776 1.234916e-38
0.29384467 0.22218366 0.36895448 0
0.35182482 0.23463008 0.36835676 1.4843889e-38
0.37541348 0.23202062 0.37030753 0
0.39142534 0.23120824 0.36918682 1.2995975e-38
0.40367994 0.22941522 0.36788791 1.2441357e-38
0.29495987 0.24881831 0.37139589 0
0.35120648 0.24942777 0.37176606 1.4014495e-38
0.37524775 0.25582078 0.36639482 0
0.39084333 0.24988841 0.37020144 1.2627554e-38
0.40394676 0.25085273 0.37197626 1.21644e-38
0.29372737 0.26467174 0.37828523 0
0.30083904 0.27200246 0.36269769 0
0.34918907 0.27296358 0.36852789 1.5302332e-38
0.37589484 0.27119088 0.37191963 0
0.39166743 0.27419397 0.3700625 1.3180002e-38
0.40290794 0.2657797 0.37048563 1.1888538e-38
0.30127132 0.28697783 0.36357903 0
0.34853482 0.29167488 0.3710967 1.5118309e-38
0.37636682 0.28074914 0.36560881 0
0.3904359 0.29389873 0.37032768 0
0.30137485 0.31196398 0.37243843 0
0.34723407 0.30849427 0.36693579 1.4011955e-38
0.37672555 0.30901384 0.36958119 0
0.39034432 0.31487346 0.36943576 0
0.4021242 0.31552756 0.37425017 1.1790566e-38
0.30333659 0.32638735 0.36978853 0
0.37760514 0.32781672 0.36824694 0
0.38949803 0.33100682 0.36961836 0
0.40237761 0.33643523 0.37424707 0
0.29870886 0.34908554 0.37465426 0
0.3782779 0.34325516 0.37104034 0
