# .PCD v0.7 - Point Cloud Data file format
VERSION 0.7
FIELDS x y z rgb
SIZE 4 4 4 4
TYPE F F F F
COUNT 1 1 1 1
WIDTH 1099
HEIGHT 1
VIEWPOINT 0 0 0 1 0 0 0
POINTS 1099
DATA ascii
-0.067899287 0.2496749 0.58870721 0
-0.051401913 0.24700096 0.5878669 1.4753107e-38
-0.029701203 0.24791516 0.59011978 0
-0.01173601 0.24878231 0.58601254 0
0.0073892097 0.24728623 0.58331978 0
0.031138994 0.25117195 0.58110166 0
0.35281858 0.2545169 0.59756595 1.3639541e-38
0.37008464 0.2512801 0.59091806 1.465188e-38
0.38515511 0.25475264 0.58163708 1.6126265e-38
-0.66575134 0.26620451 0.58156717 1.5485982e-38
-0.65000254 0.26889905 0.58825821 1.4473266e-38
-0.22493185 0.26252195 0.58233643 0
-0.20675489 0.26797575 0.58252299 0
-0.19048834 0.27243525 0.5849424 0
-0.16918409 0.27389127 0.59094954 0
-0.15164036 0.27118188 0.59825283 0
-0.13320777 0.26738623 0.59063315 0
-0.10973351 0.26765424 0.59105825 0
-0.088260278 0.27335894 0.58806533 0
-0.068516508 0.27136031 0.58577311 0
-0.046645939 0.26669922 0.58393949 1.6780326e-38
-0.028338399 0.27058065 0.58950967 1.2817362e-38
-0.013486771 0.26727316 0.583579 0
0.0081021655 0.27224475 0.58104527 0
0.35625175 0.27203733 0.589414 1.3455507e-38
0.37144479 0.267156 0.59022993 1.3914308e-38
-0.64907879 0.28781906 0.58681273 1.4749857e-38
-0.63116759 0.29173309 0.59809434 1.4842052e-38
-0.20818403 0.28762671 0.58127725 1.4471454e-38
-0.1993499 0.28803661 0.58299786 1.1795978e-38
-0.14654809 0.28638476 0.5906285 2.0377412e-38
-0.13542208 0.28822547 0.58603829 0
-0.11716197 0.28675032 0.5896461 0
-0.096512325 0.29413697 0.58515847 0
-0.076508939 0.29202175 0.58287215 0
-0.046577059 0.28792781 0.58390641 1.7241309e-38
-0.031224933 0.2896724 0.5902943 1.7056917e-38
-0.0090753427 0.28611562 0.58079571 0
0.35489756 0.28767848 0.59304881 1.2533191e-38
0.36966991 0.28600049 0.58809221 1.3821754e-38
-0.64777613 0.30787104 0.58444721 1.5210837e-38
-0.63294476 0.3115918 0.59238005 1.4473989e-38
-0.14770915 0.31116834 0.58431339 2.2220952e-38
-0.13541585 0.30729097 0.58400422 0
-0.11414053 0.31052476 0.58353114 0
-0.045612153 0.30610114 0.58373839 2.3509886e-38
-0.033533331 0.30840418 0.59278429 2.3509886e-38
-0.015529378 0.30068964 0.58014673 0
0.35472977 0.31146672 0.59297889 1.308564e-38
0.36868581 0.30997935 0.58907723 1.474334e-38
-0.64629328 0.33046842 0.58125186 1.4843136e-38
-0.62777424 0.33059889 0.59236926 1.4566907e-38
-0.61872852 0.33539879 0.59756458 1.4935336e-38
-0.14434382 0.32818276 0.58311641 2.2772684e-38
-0.13145605 0.3216452 0.58238423 0
-0.046662137 0.32470006 0.58145052 2.3509886e-38
-0.029152136 0.32957259 0.5947597 2.3509886e-38
0.35433215 0.32816109 0.59116936 1.1794897e-38
0.36871442 0.32962835 0.58760369 1.4651142e-38
-0.62995136 0.34311068 0.58682698 1.3554191e-38
-0.61820191 0.34143701 0.5975402 1.4843858e-38
-0.027995702 0.34207928 0.59464931 2.3509886e-38
0.19858083 0.35701597 0.58970845 1.1978591e-38
0.21879365 0.35317972 0.59420043 0
0.35287905 0.34668884 0.59297371 0
0.36286029 0.34775269 0.58871293 1.2531369e-38
-0.18930377 0.3739078 0.58786911 2.2402456e-38
-0.16356897 0.36673945 0.58601075 1.6587999e-38
-0.15010391 0.36422086 0.5846507 1.520326e-38
-0.022071289 0.37919316 0.5925554 1.4189467e-38
-0.0013572425 0.37701556 0.58740485 1.4005799e-38
0.017663851 0.37603694 0.59403574 1.4097273e-38
0.037856136 0.37364417 0.5882268 1.3913599e-38
0.054015949 0.37138921 0.59415287 1.3821408e-38
0.078509599 0.36927718 0.59189343 1.3637016e-38
0.097661585 0.36783728 0.58958721 1.3452633e-38
0.11471336 0.36533245 0.59097427 1.3268245e-38
0.12968244 0.36460218 0.58471239 1.2992741e-38
0.15001792 0.36441514 0.58210891 1.271651e-38
0.16968907 0.36253661 0.58529192 1.2348089e-38
0.18006834 0.36044016 0.58837342 1.2163345e-38
0.33993244 0.37310207 0.59687841 0
0.35356614 0.36846766 0.59020847 1.2070754e-38
0.36400792 0.3614589 0.5942257 1.2899422e-38
-0.20448796 0.39114761 0.59288526 2.1844938e-38
-0.18898207 0.38869858 0.5850153 2.3417327e-38
-0.090006039 0.3863427 0.59668255 1.4282021e-38
-0.062685184 0.38312602 0.59393823 1.4189463e-38
-0.043784287 0.38041514 0.59624851 1.428166e-38
-0.03829797 0.38167846 0.58570796 1.4005793e-38
0.35209739 0.38902673 0.58937532 0
0.36539498 0.38172174 0.58977646 1.2161857e-38
0.33713549 0.41142368 0.5940659 0
0.35179672 0.40723777 0.58439076 0
0.36324269 0.40693641 0.58882511 0
0.39554024 0.4197408 0.59643686 1.3367273e-38
-0.026068036 0.43488097 0.59657848 1.8900468e-38
-0.0067643356 0.43344331 0.58481133 1.6409005e-38
0.0081591625 0.43590695 0.58247721 1.3458394e-38
0.31008366 0.42354393 0.59755409 1.3460179e-38
0.32817659 0.42732149 0.58924305 1.2352756e-38
0.34841046 0.42547902 0.58840787 0
0.3680526 0.42270368 0.58872437 1.216656e-38
0.39069146 0.42117482 0.58407998 1.2169812e-38
0.41581497 0.42015684 0.58979702 0
0.43588558 0.420564 0.58619416 0
-0.029079661 0.45048577 0.58709478 2.1848911e-38
0.035305388 0.45950729 0.5887723 1.5669263e-38
0.051709585 0.45827955 0.59113419 1.5483785e-38
0.070973739 0.45910561 0.58984482 1.5483423e-38
0.090145215 0.45910829 0.58372778 1.5299035e-38
0.29815418 0.45771134 0.59599322 0
0.30862856 0.45598149 0.58909345 1.1887087e-38
0.32789502 0.45325977 0.5931654 0
0.34825647 0.45155227 0.59260452 0
0.36393124 0.44216055 0.58012152 0
-0.034594722 0.4716599 0.59518588 1.9910997e-38
-0.016477294 0.47455168 0.58045971 1.3094275e-38
0.049292155 0.46695492 0.59094119 1.3086726e-38
0.068082243 0.46626008 0.59037822 1.3270388e-38
0.092866793 0.46765834 0.59163696 1.3270386e-38
0.10956188 0.46537656 0.58953559 1.2349868e-38
0.13213165 0.46883899 0.5877232 1.2533534e-38
0.15375356 0.47003943 0.58829665 1.2072558e-38
0.1696713 0.47083968 0.58833426 1.3085265e-38
0.1876086 0.47168151 0.58889657 1.2164752e-38
0.2094873 0.4728162 0.59084648 1.2071833e-38
0.23144762 0.47237659 0.58711493 0
0.25363609 0.47447631 0.58693767 0
0.27994201 0.46925271 0.58957803 0
0.31121311 0.46468478 0.58822978 0
0.33757716 0.46363515 0.59979326 0
0.35079169 0.46583232 0.5890646 0
-0.030273814 0.48878562 0.59336722 2.1202464e-38
-0.01888936 0.49071205 0.5849663 2.2398477e-38
0.27148154 0.48051167 0.58597755 1.2069679e-38
0.29159874 0.48249811 0.59133208 0
0.31478426 0.48351106 0.59158605 0
0.32796553 0.48132768 0.58636165 0
-0.042490084 0.51822293 0.59451759 2.3509886e-38
-0.032194614 0.51525652 0.58762312 2.3414796e-38
-0.034708031 0.53625906 0.58722293 2.3414795e-38
-0.045774825 0.54377234 0.59494936 2.3509886e-38
-0.032276314 0.55659437 0.58193284 2.3414068e-38
-0.048318293 0.56917185 0.59247261 2.3140379e-38
0.074328199 0.57675117 0.58195519 1.6306362e-38
0.076913439 0.5879693 0.58188564 1.6307077e-38
-0.073124841 -0.089608222 0.60575962 1.5012698e-38
-0.03671759 -0.080575004 0.6015898 2.0457695e-38
-0.45660383 -0.062811144 0.61604524 0
-0.38579774 -0.060976688 0.61746937 1.5660619e-38
-0.068818599 -0.077486992 0.60706711 1.4376006e-38
-0.02690408 -0.07084249 0.6064412 2.1011955e-38
-0.011754512 -0.067468449 0.60877877 1.7975981e-38
0.050216697 -0.062283456 0.60577911 1.3926597e-38
0.2312043 -0.063911498 0.60818183 0
-0.45837194 -0.051078878 0.61139905 1.2443525e-38
-0.40383098 -0.051582254 0.60483122 1.3457318e-38
-0.39340287 -0.050456915 0.61202353 1.6127023e-38
-0.37461296 -0.048011951 0.61407882 1.4560412e-38
-0.16787538 -0.048435908 0.61892676 1.4000754e-38
-0.07091248 -0.055702485 0.60516983 0
-0.030642282 -0.046196699 0.604936 2.1289622e-38
-0.011812582 -0.050175667 0.6090678 1.8990851e-38
0.0084154578 -0.048812464 0.61959082 1.7241659e-38
0.050554529 -0.056828141 0.60842317 1.337198e-38
0.23093332 -0.050306115 0.61167568 0
-0.45511371 -0.025510795 0.61898273 1.3088894e-38
-0.40341175 -0.034471925 0.60749578 2.0919025e-38
-0.39049613 -0.028258028 0.61173803 2.0551331e-38
-0.37443918 -0.021824699 0.61323631 1.5298704e-38
-0.16799398 -0.03070626 0.61582881 1.2074405e-38
-0.12638488 -0.020693636 0.60078704 0
-0.1075128 -0.023692951 0.60566217 0
-0.085624047 -0.023322755 0.60779238 0
-0.070375279 -0.034808118 0.6060884 1.364206e-38
-0.058573015 -0.023248654 0.60629737 0
-0.027066376 -0.025202271 0.60605305 2.1288896e-38
-0.012955159 -0.030560141 0.60845202 1.9911727e-38
0.005968187 -0.029878624 0.61745054 1.88079e-38
0.23055387 -0.030004093 0.610762 0
0.24348569 -0.029411713 0.60848486 0
-0.45423049 -0.0050526336 0.61868107 1.3456955e-38
-0.40107334 -0.01457941 0.60764021 2.0827192e-38
-0.38872868 -0.010940596 0.61071497 2.0552775e-38
-0.37359655 -0.0017261109 0.61299336 1.5298704e-38
-0.12292608 -0.017852455 0.60671151 0
-0.11063303 -0.018490992 0.60631931 0
-0.087667763 -0.016930696 0.60585922 0
-0.068601348 -0.015805053 0.6066004 0
-0.02822119 -0.0044593709 0.605147 2.1566203e-38
-0.012914986 -0.0097677996 0.60873127 2.0187233e-38
0.003457169 -0.010055684 0.61456633 1.9637303e-38
0.22947127 -0.010042957 0.6104849 0
0.24185929 -0.018033488 0.61357033 0
0.39060882 -0.015794203 0.6024552 0
-0.45378396 0.014674276 0.61816847 1.3641343e-38
-0.38877976 0.0080267992 0.60932857 2.0553135e-38
-0.37402424 0.016916949 0.61375475 1.6957502e-38
-0.080820769 0.0019820575 0.61184609 1.3730638e-38
-0.029013706 0.014666855 0.60498631 2.1473646e-38
-0.011183011 0.012618395 0.61138994 2.0462738e-38
0.00052859355 0.0094715208 0.61236149 2.0098282e-38
0.22812817 0.0095872423 0.6069091 0
0.24025013 0.002036076 0.61546892 0
-0.45401666 0.034554254 0.61704439 1.3825733e-38
-0.38864478 0.032594934 0.60660326 2.0553858e-38
-0.37413162 0.032669153 0.61446714 1.7879096e-38
-0.082647279 0.021732025 0.6117149 1.3270379e-38
-0.072680719 0.022606973 0.6022191 1.6220639e-38
-0.026548125 0.035517506 0.60785258 2.2028623e-38
-0.0078516454 0.029247751 0.60937333 2.0095755e-38
0.011421526 0.032203108 0.6195994 2.0005361e-38
0.038436633 0.030024048 0.61770594 0
0.050156955 0.030584663 0.60751289 0
0.060050003 0.025283335 0.60049999 0
0.23368065 0.025506003 0.61231101 0
-0.45445701 0.054100946 0.6169489 1.4193798e-38
-0.38917923 0.052359562 0.60548872 2.0369102e-38
-0.37362418 0.052880336 0.61324829 1.8525548e-38
-0.21926871 0.05306061 0.61800402 0
-0.084118739 0.041644301 0.61111116 1.2901238e-38
-0.074202813 0.043051977 0.60137266 1.5575631e-38
-0.027071882 0.056131333 0.60770673 2.2028986e-38
-0.0098217754 0.05141386 0.60867703 2.0556733e-38
0.0095529379 0.051953897 0.61711812 2.0466701e-38
0.051508546 0.050326854 0.61323285 0
0.062811792 0.050572302 0.60321438 0
0.23268288 0.04568259 0.61268878 0
-0.46818769 0.069878817 0.6061188 0
-0.45553234 0.074851535 0.61598921 1.4562938e-38
-0.38771129 0.071399897 0.60545146 2.0461659e-38
-0.37192747 0.073057353 0.61272389 1.8525551e-38
-0.26644933 0.0733881 0.61696672 0
-0.2528699 0.069346212 0.61898607 0
-0.23097688 0.069387801 0.61747801 0
-0.20748928 0.073040701 0.61589551 0
-0.085501716 0.061495036 0.6106782 1.2348789e-38
-0.075663269 0.063015133 0.60153008 1.4745518e-38
-0.027915515 0.075179107 0.6069299 2.2213376e-38
-0.011074924 0.071834974 0.60947418 2.1109548e-38
0.0073217819 0.071990363 0.615035 2.1019513e-38
0.050748449 0.069847092 0.61253846 0
0.064080164 0.066857845 0.60686123 0
0.080566183 0.06500157 0.60133237 0
0.2316695 0.065503165 0.61436868 0
-0.72050995 0.097691432 0.61373651 2.3509886e-38
-0.70156687 0.096278086 0.60315752 2.3509886e-38
-0.68250418 0.095343173 0.60486543 1.9914257e-38
-0.67119247 0.094490364 0.61209822 1.5117562e-38
-0.48798978 0.093375742 0.60958505 0
-0.47640681 0.086798266 0.60434091 0
-0.45525682 0.094430014 0.61566389 1.4931361e-38
-0.3857103 0.089946806 0.60644448 2.0276909e-38
-0.37267631 0.092653029 0.609209 1.7696153e-38
-0.2490409 0.080035239 0.61736 0
-0.11829737 0.090015203 0.61920655 0
-0.08830969 0.087562367 0.61633909 0
-0.066786811 0.087663174 0.61273503 0
-0.046080858 0.089838624 0.61716092 0
-0.031414725 0.092165634 0.6117028 0
-0.0096562607 0.09296383 0.61238176 2.1108829e-38
0.0057758833 0.091609605 0.61372912 2.1572687e-38
0.051018666 0.089426748 0.61221957 0
0.063792571 0.085305914 0.60814852 0
0.0812869 0.082416981 0.60374612 0
0.23080316 0.08520022 0.61484289 0
-0.69041395 0.10657941 0.60274196 1.8342237e-38
-0.66780418 0.10889655 0.61025625 1.5667841e-38
-0.65671331 0.11990133 0.61229086 1.4379256e-38
-0.45478085 0.11455769 0.61480832 1.5208309e-38
-0.38381737 0.11136182 0.60506189 2.0277992e-38
-0.37017903 0.11448307 0.60965836 1.7973102e-38
-0.20017967 0.10451619 0.60128003 1.8436971e-38
-0.18679006 0.1097863 0.60460103 0
-0.16777988 0.10950375 0.60725439 0
-0.14741293 0.10907116 0.61348289 0
-0.12911773 0.11119033 0.61557877 0
-0.10966172 0.10990568 0.61823171 0
-0.092920095 0.1056494 0.61539859 0
-0.071327806 0.1146287 0.61701787 0
-0.051751744 0.11102482 0.61660898 0
-0.031231567 0.11471293 0.61262399 0
-0.010618675 0.11248399 0.6120078 2.1201388e-38
0.0095510911 0.11137967 0.61563146 2.1757078e-38
0.050363686 0.11002994 0.6113295 0
0.063836232 0.10517372 0.60618424 0
0.080058716 0.10155543 0.60262942 0
0.23269546 0.10418634 0.60925031 0
-0.66907477 0.12949827 0.60644275 1.585259e-38
-0.64986628 0.13144544 0.61566967 1.5207585e-38
-0.45429268 0.13476013 0.61393702 1.557673e-38
-0.38676816 0.12626371 0.60615867 1.9816654e-38
-0.37070987 0.13398677 0.608805 1.8526994e-38
-0.3429386 0.12784937 0.61844623 2.0467089e-38
-0.18557879 0.13664895 0.60323226 0
-0.1668822 0.12788904 0.60520327 0
-0.14729148 0.12773201 0.61162829 0
-0.12894192 0.13144216 0.61524689 0
-0.11480139 0.12752426 0.61625755 0
-0.09522523 0.12304839 0.61486912 0
-0.068089262 0.13305879 0.61623907 0
-0.050249975 0.13015477 0.61553127 0
-0.031695504 0.1341268 0.60953707 0
-0.013617182 0.13158542 0.60969955 2.2124064e-38
0.0074189417 0.13028291 0.61361456 2.2310252e-38
0.03998597 0.13616844 0.61600006 0
0.049688183 0.13015227 0.61116493 0
0.070060447 0.12920912 0.60264385 0
0.23187312 0.1281015 0.60942119 0
-0.66797149 0.1488239 0.6027652 1.5576364e-38
-0.64894468 0.14878915 0.61525768 1.5576363e-38
-0.45413601 0.15465577 0.61240506 1.6037707e-38
-0.38637495 0.1508802 0.6024614 1.9540432e-38
-0.36940947 0.15307529 0.60939872 1.8987975e-38
-0.1835943 0.15710127 0.60267442 0
-0.1660841 0.14764073 0.60434651 0
-0.14588699 0.15033388 0.6125142 0
-0.12947902 0.14697385 0.61461496 0
-0.10748298 0.14335997 0.61757624 0
-0.087729536 0.14727017 0.61589938 0
-0.069537915 0.15176544 0.61490899 0
-0.050701868 0.14988267 0.61231703 0
-0.029120622 0.15149704 0.6070326 0
-0.010878677 0.15163912 0.60770249 1.6962914e-38
0.0099840444 0.15473825 0.61266106 2.055998e-38
0.027861832 0.15685341 0.60976207 0
0.046689168 0.15342733 0.6076088 0
0.062168356 0.1482067 0.60142314 0
0.23052907 0.14924179 0.60790181 0
-0.6669848 0.17461257 0.60595721 1.7142248e-38
-0.65243512 0.17008448 0.61073714 1.6036982e-38
-0.6353296 0.16769075 0.61760044 1.4471459e-38
-0.45470515 0.17515868 0.61119592 1.6406136e-38
-0.38173351 0.16834375 0.60413563 2.0003213e-38
-0.37172696 0.17099512 0.60971791 2.0372355e-38
-0.35147005 0.17276639 0.61628562 1.8158934e-38
-0.22789843 0.17819938 0.60346395 0
-0.21160814 0.17836782 0.61258757 0
-0.18203411 0.17739332 0.60203063 0
-0.16498439 0.16851735 0.60385072 0
-0.14893779 0.16611925 0.60899687 0
-0.12906964 0.16987106 0.61431599 0
-0.10564658 0.1685292 0.61664814 0
-0.088378057 0.16917485 0.6131233 0
-0.068638481 0.17115752 0.60933524 0
-0.049116079 0.16998646 0.60484517 0
-0.028713988 0.17119953 0.60589641 0
-0.012105174 0.17128968 0.6045171 1.5395951e-38
0.007979162 0.1750959 0.61012793 1.5949118e-38
0.029473811 0.16443422 0.60131603 1.5120457e-38
0.049442433 0.17023534 0.61138952 0
0.061293252 0.16953574 0.60135001 0
0.22953218 0.16633822 0.60568845 0
-0.64978099 0.18999258 0.60626328 1.5576727e-38
-0.63408184 0.19131522 0.61730593 1.5760756e-38
-0.45558247 0.19176647 0.61125201 1.650122e-38
-0.38142389 0.18637672 0.60626918 1.908126e-38
-0.37162933 0.19234946 0.60925668 2.0003215e-38
-0.35347474 0.19542092 0.61456382 1.705222e-38
-0.33951351 0.18440911 0.61883825 2.1665984e-38
-0.22756895 0.19128512 0.6020723 0
-0.2109336 0.1912204 0.61092675 0
-0.18117392 0.19749233 0.60116005 0
-0.1642029 0.18831658 0.60310578 0
-0.14515066 0.18773155 0.60893261 0
-0.12854746 0.19042528 0.61160642 0
-0.10777217 0.18744314 0.61408567 0
-0.088712342 0.19012879 0.61028248 0
-0.065601759 0.18930572 0.60610664 0
-0.047857255 0.19102436 0.60601747 0
-0.030908767 0.18941048 0.60523027 0
-0.014310257 0.18980421 0.60628778 1.6963278e-38
0.0064859884 0.19425502 0.61499143 2.3232936e-38
0.038997371 0.19068249 0.61750007 0
0.050078802 0.1900533 0.61002362 0
0.06110939 0.18940766 0.6011765 0
0.22946905 0.18599199 0.60808635 0
-0.64993888 0.21024331 0.60257816 1.5393056e-38
-0.63309932 0.21123296 0.61358297 1.5577087e-38
-0.45579243 0.20888934 0.61333066 1.3370904e-38
-0.3693372 0.21249369 0.6112144 1.972807e-38
-0.35171956 0.21506022 0.61449432 1.7145863e-38
-0.33961093 0.2043522 0.6184333 2.2127318e-38
-0.22694622 0.21085888 0.6000632 0
-0.21182178 0.21173464 0.6087327 0
-0.16221902 0.20839313 0.60351968 0
-0.14455557 0.20774166 0.60825241 0
-0.12893681 0.20970654 0.60854578 0
-0.10857481 0.20773795 0.61189574 0
-0.092908785 0.21002096 0.60720384 0
-0.074151188 0.21402203 0.60500127 0
-0.049998585 0.21190271 0.60285354 0
-0.031968117 0.21118926 0.60613596 0
-0.010331782 0.20969597 0.60572344 2.1574856e-38
0.0030999435 0.21330765 0.61421382 2.0284476e-38
0.038008772 0.21176317 0.61900008 0
0.049190309 0.20978133 0.61013556 0
0.061183281 0.20729485 0.60059994 0
0.22907583 0.20448826 0.60654402 0
0.35267738 0.21076369 0.61378813 1.3179281e-38
0.36863971 0.21008669 0.60608143 1.4192703e-38
0.38143662 0.20141487 0.60169435 1.6313558e-38
-0.63250446 0.2310929 0.61027849 1.539306e-38
-0.61192113 0.23117903 0.61993879 1.5761486e-38
-0.37172329 0.23145747 0.60909456 2.1205721e-38
-0.34600914 0.23274651 0.61353761 1.9644522e-38
-0.21258137 0.23031676 0.606233 0
-0.18709458 0.23305449 0.61853677 0
-0.14639649 0.22936423 0.60705411 0
-0.12885828 0.22840531 0.60969275 0
-0.11451399 0.22579598 0.61177146 0
-0.09917932 0.22530596 0.60562861 0
-0.079462148 0.23276736 0.6046198 0
-0.050732207 0.23262337 0.60245198 1.2170923e-38
-0.030713184 0.23411129 0.61156845 1.548997e-38
-0.012311792 0.23023212 0.60563892 1.7427494e-38
0.0070499121 0.23411247 0.61670256 1.678104e-38
0.038651232 0.23039839 0.61773348 0
0.049248852 0.2294776 0.60968262 0
0.0601 0.22458212 0.60100001 0
0.22824347 0.23040779 0.60839957 0
0.35130304 0.23232609 0.61166608 1.2625385e-38
0.36667985 0.23344919 0.6049701 1.5665669e-38
-0.63196009 0.25041461 0.60656852 1.5301226e-38
-0.61465818 0.25194675 0.61754048 1.5485619e-38
-0.36837289 0.24939074 0.60978258 2.3509886e-38
-0.3457821 0.24988219 0.61259109 2.0383533e-38
-0.20879994 0.25138906 0.60516357 0
-0.18763505 0.25286031 0.61663467 0
-0.14718063 0.25251341 0.60529363 0
-0.12933466 0.25026986 0.61040312 0
-0.11021864 0.24410614 0.61144656 0
-0.083489105 0.25998327 0.61839944 0
-0.047902644 0.24880263 0.60545284 2.1575235e-38
-0.033968803 0.25154638 0.61348909 2.0100106e-38
-0.0097884303 0.24998961 0.61033148 1.6873964e-38
0.010784579 0.25256178 0.61878192 1.6780684e-38
0.038934212 0.24119213 0.61650002 0
0.042078946 0.24060528 0.61500001 0
0.22387923 0.24196497 0.61142862 0
0.35936731 0.24500924 0.60721886 1.2808689e-38
0.36140805 0.2432639 0.61918378 1.3822104e-38
-0.6311574 0.27060887 0.602584 1.5117555e-38
-0.612149 0.27154768 0.61513859 1.4472908e-38
-0.35775974 0.26642027 0.61309713 2.3509886e-38
-0.33652514 0.26585478 0.61844707 2.3509886e-38
-0.20300721 0.26284149 0.60724938 0
-0.18692774 0.26580155 0.61634606 0
-0.14369671 0.26011688 0.60242414 0
-0.12974301 0.26911291 0.60468554 0
-0.11066557 0.26911145 0.61035842 0
-0.092257075 0.2700789 0.61555469 0
-0.010638716 0.26968437 0.60634768 1.9364322e-38
0.009287524 0.27718592 0.61899698 1.7795912e-38
0.33787113 0.26529926 0.61712754 1.188782e-38
0.3510589 0.26533017 0.61096799 0
0.3623476 0.26934165 0.60918188 1.4098332e-38
-0.63444579 0.28378817 0.60147715 1.5946603e-38
-0.61127627 0.29120573 0.61228794 1.4842052e-38
-0.59448391 0.29228237 0.61956614 1.5302314e-38
-0.34560934 0.28894386 0.61305553 2.3509886e-38
-0.33652246 0.29241884 0.61614323 2.3509886e-38
-0.01284373 0.29391825 0.60679615 2.2312782e-38
0.0064353077 0.29595214 0.61844683 1.9548712e-38
0.34927484 0.2889421 0.61112797 1.2164036e-38
0.36426747 0.28957492 0.60848212 1.3821021e-38
-0.61040795 0.31216925 0.60871029 1.5210836e-38
-0.59407938 0.31329542 0.61774403 1.4750219e-38
-0.020726038 0.3102746 0.60189068 2.3509886e-38
-0.010474434 0.31237575 0.60772377 2.341769e-38
0.0039982991 0.31492212 0.61703569 2.2497533e-38
0.33666342 0.30936363 0.61217618 1.2717941e-38
0.34668601 0.30688047 0.60853755 1.1795616e-38
0.36280122 0.30323753 0.60699469 1.3729543e-38
-0.61008251 0.33082923 0.60623717 1.4935332e-38
-0.59459209 0.33300614 0.61420923 1.4658383e-38
-0.44577038 0.33677813 0.6183874 1.9180288e-38
-0.011925209 0.33174247 0.60631508 2.3509886e-38
0.0024312362 0.33485889 0.61547172 2.3509886e-38
0.33199143 0.33175656 0.61468297 1.3178549e-38
0.34735698 0.32987404 0.60961962 0
0.36332789 0.32274562 0.60161906 1.4282359e-38
-0.61017293 0.34419411 0.60243475 1.4290683e-38
-0.59446466 0.34561247 0.61295044 1.4474717e-38
-0.44717991 0.34617007 0.61693215 1.9179927e-38
-0.01451963 0.34727752 0.60404789 2.3509886e-38
0.0052936692 0.3551262 0.61639786 2.3509886e-38
0.17688975 0.35924345 0.6064617 1.2347016e-38
0.19670337 0.35626614 0.60835248 1.2070069e-38
0.21638155 0.35288805 0.61234111 0
0.23284829 0.35104853 0.60897994 0
0.33213177 0.35013261 0.61251342 1.2441349e-38
0.34752843 0.34759727 0.61068559 1.23477e-38
-0.43892476 0.37632263 0.61723852 1.9824223e-38
-0.32564986 0.36849964 0.61703593 2.2315665e-38
-0.24653572 0.37911344 0.61721665 2.2402818e-38
-0.22514543 0.37591663 0.60981518 2.0834049e-38
-0.20863497 0.37115633 0.60904634 1.7880901e-38
-0.19146907 0.36615357 0.60732806 1.5481288e-38
-0.17260852 0.36555392 0.60193729 1.5111789e-38
-0.035631821 0.37729245 0.60433227 1.4557161e-38
-0.009351328 0.37704393 0.60747254 1.4188748e-38
0.016390139 0.37419277 0.60861075 1.4096914e-38
0.033032749 0.37372768 0.60590255 1.3913243e-38
0.055011705 0.37059969 0.61256689 1.3821047e-38
0.075827911 0.36785248 0.61403936 1.3637015e-38
0.09450157 0.36588311 0.61658669 1.345191e-38
0.13757566 0.36312649 0.60134047 1.2899828e-38
0.15670508 0.36121786 0.60438806 1.2623596e-38
0.33377147 0.3677637 0.61431652 1.2439535e-38
0.34939763 0.36669385 0.60871327 0
-0.44101578 0.3914603 0.61627775 1.9640554e-38
-0.43702435 0.38826436 0.61905032 2.0008618e-38
-0.33068258 0.39209223 0.61209488 2.1213281e-38
-0.24480638 0.39618403 0.6152972 2.1474343e-38
-0.22626975 0.39244878 0.6050483 2.212442e-38
-0.12003678 0.38784611 0.61335832 1.4466054e-38
-0.10525848 0.38478053 0.61479622 1.446641e-38
-0.085582562 0.38418195 0.61115241 1.4558244e-38
-0.066811174 0.38212726 0.6113252 1.4557882e-38
-0.046952426 0.380945 0.6149587 1.437386e-38
-0.027379658 0.38017517 0.61472827 1.4465694e-38
0.33121291 0.39007226 0.61071455 0
0.34859893 0.38898951 0.60608149 0
-0.44071519 0.40849864 0.61080402 1.917958e-38
-0.43752462 0.40998065 0.61752796 1.9363609e-38
-0.32455018 0.40083799 0.61313397 2.1212922e-38
-0.22204493 0.41833782 0.61739284 2.1101959e-38
-0.21046317 0.41621703 0.61234307 2.1654027e-38
0.33425221 0.41039163 0.61058056 0
0.34753188 0.40754336 0.60741651 0
-0.4406985 0.42726451 0.60647947 1.8626765e-38
-0.4368903 0.42990434 0.61329186 1.8626765e-38
-0.047821157 0.43872309 0.61582553 2.2496094e-38
-0.03434331 0.4357864 0.610497 1.8992294e-38
-0.011760196 0.43477094 0.60540956 1.3735336e-38
0.27389672 0.42539728 0.61270988 1.392044e-38
0.29398137 0.42454359 0.61015308 1.4012994e-38
0.31706032 0.42385533 0.6135264 1.373641e-38
0.33250976 0.42636508 0.61065882 0
0.34690937 0.42375436 0.61348182 1.5301938e-38
0.37650859 0.42180872 0.60311025 1.3367632e-38
-0.047683176 0.45640442 0.61299527 1.6314274e-38
-0.037192583 0.45273125 0.60366708 2.2679398e-38
0.032947488 0.45882073 0.60155386 1.520828e-38
0.05096354 0.45929086 0.60066175 1.5391232e-38
0.29271531 0.44929194 0.60755324 1.1980006e-38
0.30963391 0.45563218 0.61400306 0
0.33008441 0.4490388 0.61022794 0
0.34204265 0.45250124 0.60552388 0
0.025828622 0.46531218 0.61247432 1.3457667e-38
0.057697952 0.46512061 0.61429942 1.3732075e-38
0.075548925 0.46571785 0.60790312 1.3823912e-38
0.090855107 0.46333966 0.60581982 1.4746221e-38
0.10702173 0.46691293 0.6113013 0
0.12971269 0.46980888 0.61126608 0
0.15231726 0.47143409 0.61162269 0
0.17240682 0.47168213 0.61183286 1.1795964e-38
0.1924879 0.47689658 0.60843468 0
0.210576 0.47411299 0.61699522 1.2163304e-38
0.22630358 0.47559953 0.61003375 0
0.24138309 0.47008911 0.6086182 1.197928e-38
0.26032078 0.47002959 0.60263205 0
0.29162517 0.46622947 0.61209965 0
0.30099607 0.46243379 0.60491031 1.207003e-38
0.33352229 0.4656212 0.61531174 0
0.34325522 0.46424323 0.60601127 0
-0.048739314 0.49012384 0.61170006 2.2125141e-38
-0.032854609 0.48162273 0.60507506 1.7605025e-38
0.251156 0.48107058 0.61637956 0
0.269036 0.48268056 0.61228919 0
0.28598747 0.48324355 0.60745478 0
0.30855277 0.48353198 0.61101145 0
-0.062927194 0.5111562 0.61892545 2.3509886e-38
-0.051016938 0.51087761 0.60940862 2.3230408e-38
-0.053734839 0.5260433 0.60912466 2.3230767e-38
-0.064198107 0.55149782 0.61510867 2.3322962e-38
-0.052225683 0.54473853 0.60351282 2.3415517e-38
-0.064958692 0.57194972 0.61174589 2.323185e-38
-0.069542721 0.58149862 0.60929322 2.0285569e-38
-0.058403686 0.58267576 0.60131878 2.3509886e-38
0.24084066 -0.16076007 0.63992107 1.3266419e-38
0.23974679 -0.15565015 0.63664174 1.3083108e-38
0.24707273 -0.14978597 0.63320941 1.3269674e-38
0.26306558 -0.15122938 0.62348729 1.2993441e-38
0.24734089 -0.12744829 0.63582915 1.4745523e-38
0.26352814 -0.12362657 0.62549865 1.4745526e-38
0.25185198 -0.10363926 0.63589299 1.5574564e-38
0.26504019 -0.10439338 0.62847483 1.5390532e-38
0.25481516 -0.084817573 0.6360296 1.5758593e-38
0.26572928 -0.08339674 0.63025784 1.5574925e-38
-0.45113143 -0.07379102 0.62886202 0
-0.088972539 -0.076549783 0.62739301 0
0.013742048 -0.066591963 0.63345194 0
0.024777031 -0.064979859 0.63201857 0
0.22973225 -0.064138919 0.63318193 0
0.26683864 -0.064544544 0.63200784 1.5851149e-38
-0.45311466 -0.045493428 0.62518716 1.2351682e-38
-0.38422963 -0.040741995 0.6213761 2.0919021e-38
-0.36822858 -0.05148169 0.62747753 1.9997436e-38
-0.35140264 -0.050202407 0.63766968 1.9536096e-38
-0.33349538 -0.049221896 0.63171649 1.8712835e-38
-0.16794941 -0.047948591 0.62299579 1.2893681e-38
-0.15270576 -0.044375442 0.62876254 0
-0.089798026 -0.059561536 0.62690318 0
-0.0017078903 -0.051050618 0.62237275 1.861558e-38
0.014005063 -0.051284622 0.6283679 1.4932448e-38
0.028260699 -0.045576833 0.63430136 1.6776354e-38
0.22824447 -0.049906433 0.62755555 0
0.2670095 -0.049130447 0.63421369 1.5850432e-38
-0.44993865 -0.024859972 0.62914985 1.271974e-38
-0.3674174 -0.028183157 0.62829769 2.0367657e-38
-0.35286164 -0.027132064 0.63617384 1.9630094e-38
-0.33716726 -0.029385593 0.63028538 1.8347302e-38
-0.16981126 -0.033127606 0.62134904 0
-0.14752223 -0.029902829 0.63006723 0
-0.13754253 -0.027999805 0.63573331 0
-0.091051295 -0.039028294 0.62673175 0
-0.0031967005 -0.02734614 0.62222385 2.1288535e-38
0.014698326 -0.029084563 0.62596679 1.8620625e-38
0.026712734 -0.025461592 0.6322459 1.7605753e-38
0.22766119 -0.029181007 0.62694293 0
0.26826173 -0.023495669 0.63533324 1.6127019e-38
-0.44684216 -0.0064141788 0.63338768 1.2719387e-38
-0.36830157 -0.011456296 0.62609285 2.1105588e-38
-0.35155797 -0.006711462 0.63270772 1.8893612e-38
-0.33528253 -0.015159488 0.63214535 1.8532412e-38
-0.15173841 -0.016383545 0.62901711 0
-0.1244561 -0.01103346 0.62642986 1.6315755e-38
-0.10824835 -0.012825266 0.62480915 1.2997801e-38
-0.090537883 -0.013394987 0.62533987 0
-0.0057767425 -0.0023726728 0.62255245 2.2764392e-38
0.011561401 -0.0053243185 0.62583148 1.9632978e-38
0.025472969 -0.0059571336 0.63123024 1.8066371e-38
0.040180217 -0.0030255169 0.63845122 1.7976339e-38
0.23260918 -0.013396108 0.63168979 0
0.26861033 -0.0032953303 0.63716686 1.8343693e-38
-0.44858673 0.010309141 0.63068998 1.2904492e-38
-0.36773071 0.0081767216 0.62462687 2.0828998e-38
-0.35319915 0.014407018 0.63196677 1.9170559e-38
-0.33584258 0.0026524067 0.63071752 1.8716444e-38
-0.10037582 0.0010118149 0.63138092 0
-0.09266226 0.010412659 0.62059659 0
-0.0070856395 0.017278574 0.62243992 2.3134611e-38
0.01199876 0.01559364 0.62946862 1.9079085e-38
0.029309019 0.015666019 0.63196677 1.7144777e-38
0.23200619 0.0051972386 0.63244432 0
0.26923257 0.01643757 0.63706398 1.8529532e-38
-0.44703418 0.035210326 0.63220966 1.2996326e-38
-0.36439085 0.028102323 0.62563646 2.0829359e-38
-0.35089406 0.03401215 0.63103914 1.917056e-38
-0.329202 0.027612921 0.63545769 1.9176698e-38
-0.10529558 0.034886677 0.63603562 0
-0.088887297 0.034738764 0.63374603 0
-0.070049152 0.038218327 0.63408309 0
-0.05104325 0.036683552 0.62866592 0
-0.0082017137 0.039639167 0.62135291 2.2950941e-38
0.0097391857 0.033731788 0.6303134 1.4376388e-38
0.027672736 0.033775032 0.63005811 1.6038789e-38
0.042557895 0.038192984 0.62200004 0
0.23210013 0.029972911 0.63254786 0
0.26937354 0.036230356 0.63706559 1.9912465e-38
-0.44698972 0.056252204 0.63309616 1.3548419e-38
-0.36247203 0.045229297 0.62548375 2.0736803e-38
-0.35040456 0.054110624 0.62990326 1.926239e-38
-0.33180892 0.047222208 0.63299811 1.9453286e-38
-0.27076358 0.052516047 0.62903279 1.5843906e-38
-0.25040758 0.057612412 0.62436366 0
-0.23461235 0.053969167 0.62378991 0
-0.12444804 0.049538754 0.63795072 1.1979657e-38
-0.10963173 0.051061139 0.63658118 0
-0.0918952 0.048064929 0.63378519 0
-0.071115941 0.050971836 0.63250721 0
-0.049384352 0.049507033 0.62870622 0
-0.0087154377 0.058142211 0.62015665 2.3226802e-38
0.0080478592 0.052916147 0.63022298 2.0736801e-38
0.026873812 0.053678028 0.62967139 1.5946954e-38
0.044352084 0.054181904 0.63265502 1.2537154e-38
0.230305 0.053900771 0.62923193 0
0.27004761 0.056623086 0.6396507 1.9174903e-38
-0.64967781 0.078338854 0.62899071 1.7597086e-38
-0.44690123 0.076224789 0.63350296 1.3825362e-38
-0.3528128 0.071539618 0.62817752 1.935459e-38
-0.33456835 0.066599689 0.63328707 2.0373798e-38
-0.28642851 0.071948282 0.63648814 1.3267868e-38
-0.27067962 0.069396824 0.62861454 0
-0.24671037 0.073021106 0.62838662 0
-0.22692838 0.070466809 0.62482083 0
-0.20705795 0.067624807 0.62350893 0
-0.12826391 0.074242972 0.63275528 1.4100166e-38
-0.1106018 0.069942035 0.63527918 0
-0.091258742 0.070007727 0.63308907 0
-0.070006751 0.070491999 0.63144809 0
-0.047163785 0.071259663 0.6287691 0
-0.038964968 0.070222005 0.6261754 0
0.012958086 0.071791038 0.62867951 1.7512478e-38
0.028879566 0.074503496 0.63137186 1.4286714e-38
0.042538103 0.073385969 0.6311273 1.2813383e-38
0.22870627 0.065085381 0.63454425 0
-0.64933783 0.090024866 0.62781394 1.6219209e-38
-0.63275266 0.08918228 0.63557899 1.5850426e-38
-0.44651276 0.094768867 0.63334477 1.410195e-38
-0.36956728 0.099549122 0.62034023 1.9908127e-38
-0.34953284 0.091255859 0.62766051 1.944823e-38
-0.3349497 0.086145923 0.63149613 2.0650386e-38
-0.26314947 0.081957534 0.62124127 0
-0.25177634 0.087534785 0.62608945 0
-0.23140246 0.082056105 0.62837058 0
-0.21383536 0.085729554 0.62381619 0
-0.12806404 0.090584658 0.62962687 0
-0.11033269 0.091460459 0.6316005 0
-0.089916401 0.091223158 0.63197958 0
-0.070562989 0.090742551 0.62759095 0
-0.046802841 0.089699924 0.62579143 0
-0.034807295 0.089357659 0.62339753 0
-0.00014785351 0.098072484 0.62615442 2.29513e-38
0.014495658 0.092205867 0.6295073 1.7788348e-38
0.03043025 0.093620807 0.62923849 1.3827893e-38
0.045242723 0.095900886 0.63337189 1.5855472e-38
0.22894794 0.085756145 0.63243335 0
-0.64930516 0.11046956 0.62550235 1.6588713e-38
-0.63199651 0.11178465 0.63085341 1.5668197e-38
-0.44628131 0.11560184 0.63291609 1.4562565e-38
-0.34858441 0.11100439 0.62802243 1.9448232e-38
-0.33632439 0.1083682 0.62786859 2.0835138e-38
-0.12861645 0.11217092 0.62690598 0
-0.10885201 0.10937779 0.62799621 0
-0.088368088 0.1104262 0.62956822 0
-0.068619065 0.10905355 0.62914538 0
-0.049996167 0.10605894 0.62593585 0
-0.035176989 0.1063421 0.62070668 0
-9.7108539e-05 0.11893719 0.62724888 2.2951662e-38
0.013082925 0.11495413 0.63331652 1.5482378e-38
0.032501567 0.11502415 0.62973738 1.7146214e-38
0.045504965 0.11547436 0.63163912 1.4380345e-38
0.22796974 0.10578945 0.62733281 0
-0.65766531 0.12800501 0.62023306 1.7601779e-38
-0.63505781 0.13156249 0.62846982 1.6128456e-38
-0.61518478 0.13267373 0.63884711 1.5759675e-38
-0.44524336 0.13360959 0.63117826 1.4839154e-38
-0.43721348 0.12622558 0.63209981 1.364028e-38
-0.34807146 0.12976825 0.62571222 1.8895777e-38
-0.33100551 0.13044915 0.63606054 1.9725539e-38
-0.31794369 0.12979959 0.63781488 2.1111723e-38
-0.12726837 0.13177179 0.62514699 0
-0.10837503 0.12998836 0.62595654 0
-0.088549718 0.12923105 0.62625736 0
-0.069495693 0.12943874 0.62568969 0
-0.052028451 0.12295957 0.63814461 0
-0.0040123588 0.13588744 0.62341297 2.0922642e-38
0.012583144 0.13420349 0.63320851 1.5483099e-38
0.030671367 0.13558891 0.62828296 1.7791586e-38
0.045458339 0.13252696 0.63018298 1.502535e-38
0.22748856 0.12425125 0.63170898 0
-0.63021791 0.15188897 0.6292212 1.5668203e-38
-0.61517286 0.15326825 0.63520932 1.5483811e-38
-0.44542226 0.15193951 0.63504022 1.5023546e-38
-0.43820918 0.14621972 0.63092786 1.4193094e-38
-0.34591442 0.14852162 0.62647718 1.8895778e-38
-0.32920575 0.15088381 0.63490331 1.9634784e-38
-0.31922564 0.14913586 0.63742799 2.1296113e-38
-0.12592345 0.15389036 0.62139785 0
-0.10729219 0.15218174 0.62352914 0
-0.090243176 0.15024367 0.62660736 0
-0.069374852 0.14764327 0.63534683 0
-0.053022295 0.14419232 0.63816702 0
-0.0049099363 0.15326917 0.62358582 2.0923725e-38
0.011992882 0.15404032 0.63329208 1.5575661e-38
0.0285364 0.1547571 0.62660205 1.8252924e-38
0.044975072 0.15585254 0.63110572 1.5486336e-38
0.22709948 0.14585511 0.6261816 0
-0.64150292 0.16640967 0.6238519 1.7234442e-38
-0.62736815 0.16873674 0.62736422 1.5576727e-38
-0.615924 0.17147112 0.63264018 1.5392337e-38
-0.44611925 0.17724043 0.63163036 1.5945866e-38
-0.43915299 0.16671336 0.63087398 1.5022851e-38
-0.34682325 0.1690475 0.62841922 2.0463828e-38
-0.32906166 0.17129594 0.63304371 1.9450394e-38
-0.18995962 0.17321469 0.62922859 0
-0.12762201 0.16512623 0.62692088 0
-0.11073074 0.17002304 0.62574112 0
-0.091357045 0.16814546 0.62759203 0
-0.067149594 0.16764943 0.63453668 0
-0.051809788 0.16586241 0.63828516 0
-0.0055751335 0.178275 0.62693864 2.3322972e-38
0.015539798 0.1737247 0.62847728 1.7145143e-38
0.032071423 0.17500423 0.62838882 1.6224263e-38
0.046275895 0.1780653 0.63553834 2.2032941e-38
0.22621559 0.16612285 0.62588954 0
-0.62258303 0.19154501 0.62739533 1.4563664e-38
-0.61273408 0.19019565 0.63271809 1.4011565e-38
-0.59656793 0.19557437 0.63833129 1.548453e-38
-0.44445834 0.19144019 0.6296429 1.5579261e-38
-0.43881318 0.19204745 0.63290489 1.6224271e-38
-0.34475425 0.18853229 0.62883234 2.0280162e-38
-0.32897878 0.19265664 0.63062418 2.0004288e-38
-0.18869315 0.19372536 0.62295502 0
-0.17045316 0.18854448 0.63292855 0
-0.1246949 0.18758082 0.62963212 0
-0.10684534 0.19389543 0.62473065 0
-0.08898893 0.19091503 0.62819666 0
-0.069112301 0.18804169 0.63220143 0
-0.048888966 0.1857807 0.63837254 0
-0.0085071959 0.19688284 0.62450075 2.0371996e-38
0.011964166 0.1921812 0.6300987 1.8989419e-38
0.030599212 0.19446042 0.62834084 1.6870356e-38
0.041054096 0.19543056 0.63053381 1.6870714e-38
0.22551453 0.18510991 0.62633592 0
-0.62075919 0.20645721 0.62347174 1.5668923e-38
-0.61178946 0.21166298 0.62889802 1.4011568e-38
-0.59667969 0.21474047 0.63518047 1.53005e-38
-0.44263124 0.20393249 0.62956774 1.4383971e-38
-0.34642214 0.21112764 0.6279068 1.9819908e-38
-0.33181947 0.21248029 0.63073367 2.0004292e-38
-0.18676989 0.21350121 0.62111527 0
-0.17192528 0.21205579 0.62939894 0
-0.14742681 0.21497448 0.63911325 0
-0.11107451 0.2160131 0.62352711 0
-0.090939276 0.20854442 0.62656176 0
-0.067237869 0.21102783 0.63277256 0
-0.048362717 0.205612 0.63774371 0
-0.020883415 0.21224849 0.62099344 2.221951e-38
-0.0099550858 0.21694502 0.62473285 1.6133891e-38
0.010571348 0.21183012 0.63002312 1.6225715e-38
0.032393638 0.2126011 0.63036472 1.7885589e-38
0.046220195 0.21130794 0.63801765 2.0559618e-38
0.22458041 0.20609891 0.62620997 0
0.33613625 0.21116772 0.63006687 1.1797069e-38
0.34939227 0.21182165 0.63047755 0
0.36292344 0.20614186 0.6290288 1.3824642e-38
-0.62026596 0.23124476 0.62138969 1.6682716e-38
-0.60758501 0.22955315 0.62911075 1.4103762e-38
-0.5963093 0.23406725 0.63313401 1.4288152e-38
-0.34803838 0.23279804 0.62549448 2.1851089e-38
-0.33010826 0.23136604 0.63106859 2.0653987e-38
-0.31403005 0.23064986 0.63884521 2.3141106e-38
-0.17172265 0.22947006 0.62600577 0
-0.14750932 0.23446117 0.63726902 0
-0.13140018 0.23496491 0.63926679 0
-0.10800127 0.23384018 0.62189108 0
-0.089091033 0.22947058 0.62652802 0
-0.065535441 0.22809678 0.63329983 0
-0.04804847 0.22625789 0.63705802 0
-0.011264784 0.23692098 0.6244089 1.4751322e-38
0.0081763305 0.23414442 0.63454854 0
0.030988142 0.22946846 0.63111591 1.4382513e-38
0.044138275 0.23970479 0.63850754 1.6410811e-38
0.2240158 0.22908193 0.62656993 0
0.33519906 0.22600347 0.62860131 0
0.34814304 0.2283636 0.63135934 0
0.36117345 0.2235588 0.62283009 1.3822101e-38
-0.60335422 0.2477185 0.62608421 1.4472906e-38
-0.59086829 0.25463629 0.63298345 1.4380709e-38
-0.57861513 0.25529432 0.63904512 1.5301226e-38
-0.442734 0.25341377 0.63282657 1.2171632e-38
-0.35042989 0.24846959 0.62356287 2.341769e-38
-0.33400831 0.24811123 0.6280179 2.231387e-38
-0.31772733 0.25116515 0.63675773 2.1026022e-38
-0.16959742 0.25340509 0.62534046 0
-0.147836 0.25452155 0.63501823 0
-0.1304872 0.25492594 0.6369698 0
-0.1048566 0.25534862 0.62024748 0
-0.088300884 0.24908581 0.62502599 0
-0.065382063 0.2491827 0.629242 0
-0.046085402 0.25030008 0.63395751 0
-0.025347989 0.25069508 0.62886274 0
-0.0073989918 0.25369817 0.62810183 1.5858028e-38
0.010099778 0.24704123 0.63518989 0
0.02991513 0.25077206 0.63132823 1.4566904e-38
0.043116286 0.25901502 0.63821644 1.6134224e-38
0.22221728 0.246251 0.62883335 0
0.33415511 0.24889736 0.63420403 0
0.34873083 0.24838014 0.62969589 0
-0.6014694 0.27241725 0.62457126 1.6222824e-38
-0.59120554 0.27233598 0.62947154 1.45651e-38
-0.57778835 0.27427885 0.63692379 1.4748773e-38
-0.44491094 0.27557376 0.62958562 1.3831868e-38
-0.34414315 0.26690978 0.62509573 2.3509886e-38
-0.33067733 0.26649687 0.62926471 2.3509886e-38
-0.31484681 0.26812831 0.63611782 2.3509886e-38
-0.16952941 0.26843545 0.62458813 0
-0.14782751 0.27186877 0.63362187 0
-0.13024583 0.27279532 0.63620877 0
-0.082807854 0.26590618 0.62315828 0
-0.069778666 0.26907799 0.62462085 0
-0.050343722 0.26589629 0.63001823 0
-0.030250631 0.26269123 0.63344461 0
-0.0082121808 0.27285886 0.63676149 0
0.0180301 0.27624232 0.62504625 1.7057626e-38
0.03187979 0.27875155 0.63363576 1.6411893e-38
0.32969514 0.27310887 0.63385034 0
0.34865445 0.26849955 0.62849987 1.2254785e-38
-0.60339028 0.28764603 0.62235498 1.5946963e-38
-0.58530664 0.29004306 0.6300227 1.4565462e-38
-0.57299882 0.29370019 0.63635576 1.4565463e-38
-0.44217277 0.2960431 0.63288867 1.5122604e-38
-0.32774666 0.29102117 0.62792277 2.3509886e-38
-0.31526089 0.28783035 0.63545036 2.3509886e-38
-0.086702414 0.28285083 0.62048227 0
-0.0096212849 0.28793561 0.6346001 0
0.016263857 0.29652447 0.62394255 1.8349086e-38
0.0300471 0.29895926 0.63213456 1.696579e-38
0.042498622 0.28046733 0.63883972 1.6042751e-38
0.3326731 0.28860363 0.63055217 0
0.35061723 0.28816307 0.62788349 1.1885994e-38
-0.58415967 0.31405646 0.62685359 1.5763291e-38
-0.57107806 0.31501776 0.633093 1.5210838e-38
-0.44331929 0.31162065 0.62478721 1.7244183e-38
-0.32625073 0.30652082 0.62375087 2.3509886e-38
-0.31622237 0.30822718 0.63278717 2.3509886e-38
-0.028904887 0.30019921 0.63861781 0
0.014125945 0.31675658 0.62318087 2.0839091e-38
0.027968213 0.3188529 0.63135618 1.8533838e-38
0.040956728 0.30921674 0.63744253 1.6688838e-38
0.31758371 0.30273366 0.63971406 1.234987e-38
0.33451092 0.30903244 0.6300621 0
0.34604988 0.31332922 0.62234282 0
-0.58344054 0.33139643 0.62344003 1.5488147e-38
-0.56946629 0.33170828 0.63088912 1.4842776e-38
-0.55983973 0.33375093 0.6350413 1.5395232e-38
-0.43494692 0.33543187 0.6357801 1.9271047e-38
-0.32546031 0.32855523 0.62258029 2.341805e-38
-0.31136817 0.32921138 0.63497007 2.3509886e-38
0.012490878 0.33511919 0.62121904 2.3325854e-38
0.024561804 0.33856446 0.62947679 2.1760328e-38
0.041968014 0.32339367 0.63868552 1.7057984e-38
0.33104941 0.3285788 0.63012642 1.20722e-38
-0.57178068 0.34916967 0.62720585 1.456691e-38
-0.55961716 0.34826547 0.6343962 1.5303756e-38
-0.43447745 0.34999421 0.63277125 2.0376676e-38
-0.32530314 0.34856743 0.62061417 2.3050708e-38
-0.31141585 0.34932271 0.63199937 2.3326215e-38
0.028551187 0.35044679 0.63174182 2.1483382e-38
0.040800452 0.34218585 0.63753837 1.8626757e-38
0.17459892 0.35739714 0.62828839 1.2346293e-38
0.19369204 0.35611898 0.63044012 1.2069706e-38
0.21265152 0.35439062 0.63361263 0
0.23005871 0.35298455 0.63177848 0
0.31650615 0.34340611 0.63710088 1.2625374e-38
0.33129874 0.34980857 0.63015079 1.1887443e-38
0.3425428 0.34923404 0.62876296 1.234805e-38
-0.43233243 0.37136954 0.63096893 2.0560709e-38
-0.31312624 0.3722617 0.62718225 2.2499695e-38
-0.26900724 0.37300476 0.6396057 1.4837724e-38
-0.24831423 0.37098467 0.63100588 1.4560416e-38
-0.23297581 0.37048754 0.63014686 1.4560047e-38
-0.21231546 0.36724883 0.6217674 1.4467494e-38
-0.048543088 0.37992039 0.63958704 1.4373131e-38
-0.026741393 0.37890053 0.62468362 1.4373137e-38
-0.0059030736 0.3763364 0.62448043 1.4189107e-38
0.013477901 0.37381047 0.62630814 1.4005073e-38
0.029734775 0.36978009 0.63168979 2.1941477e-38
0.043126829 0.36913514 0.63605022 2.0651817e-38
0.072626732 0.36775994 0.6357643 1.35441e-38
0.092941672 0.36636096 0.63880318 1.3267876e-38
0.11516161 0.36460325 0.6208517 1.3176045e-38
0.13474159 0.36246902 0.62182575 1.2899462e-38
0.15464754 0.36033338 0.62619925 1.2622878e-38
0.31050485 0.3664847 0.63689178 0
0.32968411 0.36991319 0.62962329 0
0.34466106 0.36615986 0.62117988 1.1885997e-38
-0.43524754 0.396644 0.62690032 1.9732034e-38
-0.31154129 0.39045995 0.62773395 2.2040159e-38
-0.28443414 0.38732427 0.63666606 2.1479411e-38
-0.26802033 0.39097804 0.6283291 1.9355656e-38
-0.25957149 0.38103074 0.62255788 2.3509886e-38
-0.15293065 0.38963974 0.63007605 1.4558608e-38
-0.12836131 0.38702533 0.62672848 1.4558245e-38
-0.10766338 0.38419849 0.63061845 1.4650437e-38
-0.085959613 0.38331592 0.62720299 1.4649719e-38
-0.06609574 0.381962 0.62851381 1.4465328e-38
-0.045321926 0.3807629 0.62312424 1.4464972e-38
0.31609288 0.38636377 0.63029736 0
0.32931998 0.38983914 0.63012689 0
0.34107962 0.39142069 0.62402922 0
-0.431494 0.41274458 0.62812096 1.9731668e-38
-0.31153941 0.40501422 0.62597501 2.1580623e-38
-0.28472388 0.40030354 0.63441879 0
-0.24337091 0.41145647 0.62690878 1.8062021e-38
-0.23230922 0.4190104 0.62201142 2.045767e-38
0.31556469 0.40777928 0.63432854 0
0.32532761 0.41252092 0.63215816 0
-0.43187308 0.43216056 0.62492543 1.9087022e-38
-0.2700367 0.42971343 0.63457382 2.2672891e-38
-0.24785234 0.42124444 0.62574613 2.1749851e-38
-0.047377422 0.43365124 0.63703293 1.5671074e-38
-0.032219432 0.43424803 0.62584561 1.4379976e-38
0.22968461 0.42571399 0.63230711 1.4750915e-38
0.25226161 0.42491624 0.62766504 1.4750917e-38
0.27829829 0.424088 0.62406975 1.4381411e-38
0.31156653 0.43141538 0.62882173 0
0.32666239 0.43207484 0.62717497 0
-0.43059352 0.44549769 0.62539792 1.8718245e-38
-0.063569188 0.45437038 0.63441467 1.4195588e-38
-0.050363436 0.44299531 0.62454337 2.1665597e-38
0.27230632 0.45640737 0.63814664 0
0.28710586 0.45660242 0.62820017 0
0.30826414 0.4549793 0.63064086 0
0.32834566 0.44998682 0.62920946 0
-0.063721128 0.47462687 0.6366058 0
-0.051425468 0.47514865 0.62753367 0
0.010740636 0.46294388 0.63172984 1.4932057e-38
0.030108072 0.46551085 0.62767857 1.3456219e-38
0.045513891 0.46923891 0.63022906 1.2072933e-38
0.065170981 0.46847028 0.63536817 1.3085988e-38
0.090004124 0.46891302 0.62867808 1.3086348e-38
0.11385232 0.46962366 0.62653065 0
0.13154864 0.47182322 0.62984914 0
0.15072384 0.47348154 0.63087851 0
0.16671765 0.47501341 0.63124818 0
0.18681732 0.47399464 0.62997997 0
0.20688704 0.47652307 0.62999505 0
0.22540393 0.47236139 0.63497788 0
0.24460983 0.47233722 0.62765723 0
0.2708756 0.47229484 0.63304043 0
0.28680778 0.4685846 0.63125646 0
0.31475189 0.47042453 0.63114744 0
0.32520521 0.46683878 0.62787932 0
-0.06998416 0.49410403 0.63525623 2.2308447e-38
-0.058598921 0.48296469 0.62906301 2.0094668e-38
0.21372306 0.48419687 0.63833582 0
0.23120844 0.48195869 0.63130122 0
0.24872798 0.4840166 0.63084471 0
0.26471859 0.48319888 0.63076359 0
0.28994364 0.48405251 0.63145709 0
0.30691397 0.48162663 0.62548894 0
-0.069705509 0.51236057 0.63115436 2.2768705e-38
-0.080738142 0.52242672 0.63833869 2.3509886e-38
-0.07041271 0.53307259 0.62622952 2.2954182e-38
-0.074452735 0.55587316 0.62592304 2.2953458e-38
-0.085033819 0.57374096 0.63372487 2.341769e-38
-0.07340268 0.56682122 0.62125838 2.2400646e-38
0.2069125 -0.14811298 0.65460217 1.3083835e-38
0.2314164 -0.14991711 0.64289111 1.317639e-38
0.20945084 -0.12182368 0.65496135 1.4651886e-38
0.23095769 -0.12290402 0.64484376 1.4744804e-38
0.21241415 -0.10278274 0.65521622 1.5296895e-38
0.23115343 -0.10285957 0.64667791 1.5389451e-38
0.21118918 -0.081472747 0.65875822 1.5848984e-38
0.23227005 -0.083164796 0.64815295 1.5850069e-38
0.24321911 -0.089518838 0.65822291 0
0.26920792 -0.090729535 0.64892119 0
-0.44374651 -0.070398197 0.6492855 0
-0.43777257 -0.068725169 0.65702128 0
-0.11018684 -0.068084113 0.64815187 0
0.029425694 -0.069718197 0.64465618 0
0.045735851 -0.067228287 0.65752447 1.5209408e-38
0.22790128 -0.067093678 0.65239203 1.3637015e-38
0.24752742 -0.068088725 0.64896595 1.3824654e-38
0.27091601 -0.073697641 0.64869964 0
-0.44519788 -0.044147775 0.6436919 1.2073295e-38
-0.43649608 -0.048368655 0.65868348 0
-0.3482354 -0.050329417 0.64580494 2.1468588e-38
-0.33157268 -0.047082283 0.65018791 1.879925e-38
-0.31133461 -0.049306676 0.65320092 1.410485e-38
-0.10697592 -0.041776214 0.64263541 0
0.019596705 -0.041047826 0.64146072 2.0734999e-38
0.029042937 -0.054779664 0.64366311 1.6309966e-38
0.049681645 -0.050309498 0.64766306 1.6683798e-38
0.066973068 -0.054165035 0.65867472 1.5761477e-38
0.2300292 -0.045268919 0.65201402 1.3360066e-38
0.24691966 -0.048044629 0.6503064 1.4193075e-38
0.26834667 -0.052627191 0.64994228 1.2075827e-38
-0.44541237 -0.024475835 0.64193976 1.2350236e-38
-0.43638262 -0.02844603 0.657318 0
-0.34765723 -0.026754413 0.6443007 2.1010859e-38
-0.33058941 -0.029826429 0.65135998 1.9998515e-38
-0.3118965 -0.031960629 0.6514253 1.8806839e-38
-0.13599116 -0.028463496 0.64268327 0
-0.11766092 -0.030260161 0.65172875 0
0.03270027 -0.032346219 0.64517283 1.8245717e-38
0.046924628 -0.022878384 0.64678621 1.7236613e-38
0.06862773 -0.03864722 0.65723711 1.6684877e-38
0.2325089 -0.025981501 0.65181553 1.1978578e-38
0.24666184 -0.027762756 0.65106654 1.4469661e-38
0.26730627 -0.032941982 0.64971411 1.2444248e-38
-0.4417356 -0.0106811 0.65268904 1.2074727e-38
-0.43203294 -0.015386663 0.65733659 0
-0.34437954 -0.009310374 0.64518726 2.0826828e-38
-0.3275426 -0.0086875642 0.65096617 1.9815204e-38
-0.31356576 -0.012548372 0.65272701 1.9175259e-38
-0.12097875 -0.0010090843 0.65171856 0
-0.10956445 -0.012321683 0.64303851 0
0.017723367 -0.012770823 0.64048779 2.1472927e-38
0.031817682 -0.011794893 0.64486134 1.8522306e-38
0.048323326 -0.004416829 0.64791608 1.7695426e-38
0.063405611 -0.013149947 0.653745 1.6683795e-38
0.2304049 -0.010440905 0.65391064 0
0.24445066 -0.0053427736 0.65075821 1.6683809e-38
0.26621205 -0.012893308 0.64977419 1.2628638e-38
-0.35039786 0.0024064854 0.64034945 2.0735352e-38
-0.32983047 0.0097372243 0.64855993 1.9538255e-38
-0.31695896 0.007407519 0.65426505 2.0740776e-38
-0.12254492 0.019464614 0.65118933 0
-0.11236358 0.018560069 0.64148432 0
-0.0031631582 0.017516667 0.65475005 0
0.0078886561 0.017720003 0.64466661 0
0.030774388 0.0078787152 0.64433235 1.8615217e-38
