# .PCD v0.7 - Point Cloud Data file format
VERSION 0.7
FIELDS x y z rgb
SIZE 4 4 4 4
TYPE F F F F
COUNT 1 1 1 1
WIDTH 1167
HEIGHT 1
VIEWPOINT 0 0 0 1 0 0 0
POINTS 1167
DATA ascii
-0.063752435 0.094874717 0.61415142 1.7601068e-38
-0.049126752 0.095200785 0.60338748 1.8153164e-38
0.084679864 0.088645302 0.60939068 1.529869e-38
-0.22888103 0.11179717 0.60508287 0
-0.20366096 0.10573819 0.6185317 0
-0.19155222 0.11054824 0.61571944 0
-0.17247629 0.11068703 0.60919201 0
-0.15052269 0.11443063 0.60169399 0
-0.14 0.11368421 0.60000002 0
-0.064865179 0.11608572 0.61216533 1.7324839e-38
-0.054409027 0.11157447 0.60386539 1.7693623e-38
0.079349406 0.11820143 0.61620164 1.3362229e-38
0.086855471 0.10779148 0.60618281 1.6498314e-38
-0.2306976 0.13166645 0.60725313 0
-0.20346804 0.13331416 0.60062563 0
-0.18778007 0.12770061 0.61800754 0
-0.17267883 0.13067228 0.61356199 0
-0.14907643 0.13213834 0.60458779 0
-0.1355539 0.13480203 0.60028571 0
-0.069293112 0.13290231 0.61407948 1.6863866e-38
0.078053162 0.13914284 0.61740381 1.3270032e-38
0.086363494 0.12752652 0.60788608 1.6222087e-38
-0.23193309 0.15207949 0.60889745 0
-0.20398927 0.15300666 0.60285634 0
-0.18135615 0.14334738 0.61900002 0
-0.17176034 0.15010089 0.6169126 0
-0.15281741 0.15076682 0.61015898 0
-0.13472918 0.15140894 0.60339302 0
-0.11764299 0.15732428 0.60050005 0
-0.06942524 0.15594357 0.610237 1.6403973e-38
0.07746651 0.15870826 0.61880517 1.2901608e-38
0.086649105 0.14768028 0.60748637 1.5669276e-38
-0.24260633 0.17170377 0.61242574 0
-0.22454278 0.17193055 0.60862249 0
-0.20433232 0.17261566 0.60536754 0
-0.18415338 0.17363021 0.60033178 0
-0.1678333 0.16839594 0.61885631 0
-0.1524967 0.17111027 0.61423826 0
-0.12848085 0.17315118 0.60552633 0
-0.11440901 0.17228766 0.60102791 0
-0.070758231 0.17535099 0.60938752 1.5759328e-38
0.08669953 0.16755751 0.60823292 1.493171e-38
-0.24401827 0.19072382 0.61243558 0
-0.22498532 0.19200131 0.60988653 0
-0.2048579 0.19235933 0.60748452 0
-0.18461916 0.19356489 0.60272849 0
-0.15109876 0.18978795 0.61738896 0
-0.13244024 0.19097897 0.61116254 0
-0.11144963 0.19111505 0.60279024 0
-0.096761018 0.19598013 0.60022223 0
-0.072772026 0.19572477 0.60919809 1.5113957e-38
0.086899243 0.18721321 0.60931158 1.4010116e-38
-0.22078535 0.2028378 0.61100161 0
-0.20440564 0.20419262 0.60840344 0
-0.18381569 0.20584984 0.60327297 0
-0.14389925 0.20372689 0.61877781 0
-0.131825 0.21000043 0.61459625 0
-0.1087928 0.20997494 0.6061554 0
-0.091792688 0.21201989 0.60135186 0
-0.076608524 0.21668142 0.60441136 0
0.087187499 0.20745659 0.60984123 1.2996686e-38
-0.12653093 0.22383839 0.61637509 0
-0.11055535 0.22926791 0.61207354 0
-0.090041123 0.2287759 0.60368061 0
-0.077341512 0.22561765 0.60451508 0
0.07943543 0.23997778 0.61312443 0
0.086099856 0.22468857 0.61328769 1.2167647e-38
-0.1116737 0.24177897 0.61800003 0
0.07797391 0.25537792 0.61470014 0
0.086357966 0.24609989 0.60571349 0
0.07331796 -0.082025938 0.63024622 0
0.08004386 -0.08004386 0.625 1.2166538e-38
0.07458277 -0.067414731 0.62786353 1.2072915e-38
0.08004386 -0.077850878 0.625 1.225909e-38
-0.26524007 -0.049361084 0.62642235 0
0.074761853 -0.046574514 0.6275683 1.2717563e-38
0.074148849 -0.027351882 0.62883306 1.290159e-38
-0.070602424 -0.0060095731 0.63323629 1.6586915e-38
-0.057970367 -0.0092059243 0.62491083 1.6955332e-38
0.07513015 -0.0061977226 0.62754047 1.2901591e-38
-0.31571704 0.019305877 0.63901037 0
-0.072914653 0.014411304 0.63207591 1.7417041e-38
0.074587032 0.014088362 0.62935019 1.3177815e-38
-0.30720562 0.030428614 0.63779193 0
-0.2919516 0.031058334 0.63141751 0
-0.27215356 0.030969484 0.62396491 0
-0.25899231 0.033322807 0.62080002 0
-0.085348874 0.035246462 0.63712984 1.7325203e-38
-0.07487005 0.03328754 0.63031346 1.7969488e-38
0.075491749 0.033636551 0.62892169 1.336185e-38
-0.28421122 0.049304791 0.63625872 0
-0.27125302 0.04982217 0.63152337 0
-0.25304827 0.051433392 0.62540448 0
-0.23736669 0.055597004 0.62223268 0
-0.076127581 0.053969011 0.62904656 1.7785458e-38
0.075347699 0.05390621 0.63005453 1.3454406e-38
-0.28667614 0.061652459 0.63516545 0
-0.26850492 0.068052828 0.63625324 0
-0.2525925 0.070237473 0.63048017 0
-0.23242778 0.070964575 0.62209988 0
-0.2186316 0.073964909 0.62 0
-0.078992039 0.073889896 0.62814057 1.7416678e-38
0.075005651 0.070735991 0.63096166 1.3638444e-38
0.081652053 0.07076744 0.62055558 1.4653309e-38
-0.26491603 0.085187554 0.63691735 0
-0.25182748 0.089649782 0.63409954 0
-0.23433018 0.090081684 0.62801731 0
-0.21391053 0.096328363 0.6220665 0
-0.088203311 0.09353213 0.63332474 1.6679834e-38
0.076572977 0.093355134 0.62893391 1.373064e-38
0.081187591 0.090255603 0.62215394 1.4469273e-38
-0.24790405 0.10868597 0.63718063 0
-0.23279974 0.11036257 0.63235462 0
-0.20950621 0.11079843 0.6235885 0
-0.19774738 0.11464562 0.62 0
-0.089783087 0.11366172 0.63231993 1.6311051e-38
0.076192878 0.11301099 0.63179004 1.3454775e-38
0.081583343 0.11036815 0.62283337 1.4560766e-38
-0.24399653 0.12766404 0.63791454 0
-0.23155379 0.13015547 0.63460088 0
-0.21224922 0.13027239 0.62830347 0
-0.19586548 0.13262755 0.62232125 0
-0.10015163 0.13262799 0.63819969 1.5758602e-38
-0.083614714 0.13398801 0.62492448 1.6403251e-38
0.075844675 0.13415332 0.63183379 1.2994882e-38
0.081406444 0.12985791 0.62347615 1.4377448e-38
-0.22774929 0.14930002 0.63713753 0
-0.21252179 0.15024555 0.63248938 0
-0.18872917 0.15115352 0.62373465 0
-0.17622414 0.15579432 0.62100005 0
-0.10121198 0.15272334 0.63668704 1.5390182e-38
-0.08493112 0.15471172 0.62343717 1.5942997e-38
0.073906869 0.15378001 0.63292754 1.2533177e-38
0.081169099 0.15054473 0.62610221 1.3825005e-38
-0.22542962 0.16348916 0.63841635 0
-0.21051681 0.16899297 0.63567996 0
-0.19200647 0.16992021 0.62920141 0
-0.1761992 0.17238843 0.6232233 0
-0.10354467 0.17278738 0.63642043 1.4745533e-38
-0.091271184 0.17384753 0.62649488 1.5297988e-38
0.075008973 0.17553627 0.62921423 1.2073282e-38
0.081373304 0.1708087 0.62728691 1.3457303e-38
-0.20443563 0.1864315 0.63676476 0
-0.19273524 0.19017687 0.63376963 0
-0.16891575 0.19254336 0.62459266 0
-0.15648225 0.19191346 0.62170583 0
-0.10493998 0.19316459 0.63499916 1.4192362e-38
-0.088806711 0.19467588 0.62192661 1.4653342e-38
0.074715309 0.19530426 0.63043666 0
0.081470899 0.191175 0.62783158 1.2904846e-38
-0.1905311 0.2097359 0.63705224 0
-0.16914052 0.20817682 0.6282115 0
-0.15157582 0.20566553 0.62199676 0
-0.10548065 0.2142031 0.63345349 1.3271485e-38
-0.090370044 0.21451002 0.6211971 1.3732107e-38
0.074433774 0.21248475 0.63104141 0
0.082091235 0.21069056 0.62851429 1.2260196e-38
-0.18139625 0.22309625 0.63665056 0
-0.17698348 0.23027526 0.63700002 1.1991558e-38
-0.14523886 0.23428965 0.62557137 0
-0.13347921 0.23079674 0.62247229 0
-0.1079649 0.22718123 0.63447386 1.2443523e-38
-0.092173852 0.22726955 0.62158221 1.3087818e-38
0.073592015 0.23366992 0.63649309 0
0.081853896 0.22865939 0.63051438 0
-0.14509036 0.2407079 0.62650001 0
-0.13837719 0.2405158 0.62600005 0
0.07384935 0.24780039 0.63349867 0
0.083214983 0.24470577 0.62813342 1.1892492e-38
0.064354114 -0.082017958 0.65431929 0
0.067623265 -0.069300532 0.64641684 0
-0.19303356 -0.044268608 0.65961355 1.6227881e-38
0.067298204 -0.047089025 0.64735889 0
-0.17466606 -0.034839891 0.6571818 0
0.066684306 -0.028211495 0.64903033 0
-0.10320071 -0.0090496801 0.65872139 1.280653e-38
-0.086554736 -0.0076888865 0.64654386 1.5664957e-38
0.066345096 -0.0056485236 0.64972782 1.2440972e-38
-0.34467375 0.019393696 0.64791662 1.4940021e-38
-0.3372862 0.018594705 0.64970249 0
-0.30475616 0.019117545 0.64100003 0
-0.1054373 0.0103381 0.6578247 1.2807979e-38
-0.089721188 0.012300713 0.64565748 1.6495802e-38
0.067386582 0.012398566 0.647295 1.2901588e-38
-0.34859112 0.028164115 0.65180731 0
-0.33450681 0.029453166 0.64643043 0
-0.31188524 0.029921781 0.64087802 0
-0.29847372 0.021400001 0.64200002 0
-0.10704419 0.031213814 0.65639681 1.3545538e-38
-0.092358455 0.031472601 0.64428866 1.6772029e-38
0.067789391 0.032618076 0.64696598 1.3177815e-38
-0.34495717 0.042742103 0.65887702 0
-0.33215997 0.049083762 0.65441298 0
-0.31063485 0.045794606 0.64406264 0
-0.29180178 0.050634004 0.64123499 0
-0.27731273 0.057936408 0.64125001 0
-0.10837178 0.05085969 0.65513879 1.3729209e-38
-0.093251511 0.052138366 0.64296323 1.6772026e-38
0.067834988 0.052285101 0.64756513 1.3362569e-38
-0.33210218 0.064833708 0.65812737 0
-0.31039038 0.06213956 0.6489296 0
-0.28679508 0.068753913 0.6429925 0
-0.27656803 0.069936715 0.64060533 0
-0.10844868 0.073665708 0.65195 1.4190549e-38
-0.094865307 0.073015913 0.64082968 1.6587995e-38
0.067952007 0.072393626 0.64804357 1.3454769e-38
-0.3075633 0.091618232 0.65469807 1.1803213e-38
-0.29413056 0.089700557 0.6498369 1.1987601e-38
-0.26755938 0.094382614 0.64162105 0
-0.2562651 0.093881942 0.6401 1.1803923e-38
-0.11305609 0.090303093 0.65398574 1.3176037e-38
0.067679554 0.092190787 0.64955878 1.3454772e-38
-0.3064355 0.10167694 0.65571535 1.2172704e-38
-0.29344526 0.10825007 0.6534006 1.2910278e-38
-0.27026206 0.11150163 0.64682466 1.2910275e-38
-0.25646296 0.11223116 0.64135432 1.1987958e-38
-0.11688671 0.10752676 0.65561378 1.253067e-38
0.06756109 0.11225174 0.65000653 1.3086351e-38
-0.28662971 0.13442077 0.65779614 1.2910271e-38
-0.27130818 0.13022289 0.65098411 1.2910273e-38
-0.25026256 0.13255255 0.64334792 0
-0.23786494 0.13087039 0.64122224 0
-0.11605317 0.13142478 0.65089566 1.3176763e-38
0.067890778 0.13004148 0.64677894 1.2440983e-38
-0.28105363 0.14720452 0.65771431 1.3372684e-38
-0.27208343 0.15026455 0.65537632 1.2081592e-38
-0.24905318 0.15017888 0.64660579 0
-0.23405544 0.15186174 0.64225 0
-0.11718243 0.15147097 0.64901572 1.326932e-38
0.059471503 0.15578018 0.65639853 0
0.070315406 0.15221462 0.64731562 1.2349512e-38
-0.26666832 0.16847506 0.65743351 0
-0.25214338 0.16971156 0.65256953 0
-0.22936702 0.17302427 0.64537489 0
-0.21588817 0.17344213 0.64091671 0
-0.11912563 0.17120548 0.64912188 1.2716866e-38
0.058803093 0.17595114 0.65679395 0
0.07064148 0.17179923 0.64790046 1.1888895e-38
-0.25239331 0.18667614 0.65654725 0
-0.22838609 0.19110179 0.64737552 0
-0.21281476 0.19013925 0.6420188 0
-0.12071644 0.19189383 0.64842576 1.2256973e-38
0.05802732 0.19580008 0.65874004 0
0.070889197 0.19196957 0.64889002 0
-0.24163336 0.21619827 0.65900004 1.4296811e-38
-0.23284081 0.2092585 0.65387487 1.2359267e-38
-0.21199016 0.20904711 0.64481175 0
-0.19566591 0.21105662 0.64096868 1.1898648e-38
-0.12200855 0.21225561 0.64705902 0
-0.11169618 0.20791249 0.640315 1.3272201e-38
0.070918255 0.21221709 0.64931452 0
-0.23236829 0.22917409 0.65753543 1.4572683e-38
-0.20813619 0.22553514 0.64798176 1.1898291e-38
-0.18668245 0.23125766 0.64086217 1.2729488e-38
-0.17852634 0.23466669 0.64000005 1.2728051e-38
-0.12518167 0.22640055 0.64835942 0
-0.11690385 0.22680646 0.64117241 1.2074376e-38
0.070560284 0.23081037 0.64929903 0
-0.22388189 0.24231464 0.6566667 1.7615495e-38
-0.21244752 0.2427536 0.65292311 1.6142525e-38
-0.18239255 0.24318993 0.64174998 1.3467046e-38
-0.17880528 0.24178073 0.64100003 1.2820956e-38
0.066932797 0.25314328 0.65070224 0
0.059269346 0.2668542 0.65197802 0
0.062535435 0.26690134 0.64999163 0
0.056107596 -0.086030677 0.6722002 0
0.061094522 -0.087432623 0.66605926 0
0.05590944 -0.069136463 0.67181182 0
0.060933121 -0.066854879 0.66131067 1.2441696e-38
-0.22409797 -0.044030845 0.67138547 0
-0.20832621 -0.047831282 0.66632956 0
-0.1911256 -0.045065798 0.67672747 1.7149823e-38
-0.17606696 -0.044150956 0.67334789 1.3924065e-38
0.05667384 -0.048995137 0.66976398 0
0.061019585 -0.049893931 0.66144323 1.253389e-38
-0.2247716 -0.032340754 0.67576545 0
-0.20714341 -0.033202209 0.66910803 1.2449665e-38
-0.18716197 -0.036031928 0.66967881 1.4569426e-38
-0.17488196 -0.033979144 0.6778549 1.2446756e-38
-0.10427355 -0.020865656 0.66211104 1.4276244e-38
0.056296542 -0.030217458 0.67186141 1.1795967e-38
0.061161593 -0.030104544 0.66217035 1.2994504e-38
-0.20459765 -0.013746849 0.67998791 0
-0.18639609 -0.010956417 0.67261922 0
-0.1725491 -0.0082421526 0.66898674 0
-0.12645677 -0.0042613223 0.67700517 0
-0.11875056 -0.0080990149 0.66956758 0
0.056034185 -0.008438468 0.67353451 1.225658e-38
0.061286993 -0.010198869 0.66329038 1.2901948e-38
-0.18530919 0.0021986961 0.6792919 0
-0.17086996 0.0071679782 0.67818195 0
-0.12682702 0.0078219119 0.67553395 0
0.056015395 0.010895522 0.6747095 1.2348773e-38
0.061689161 0.011280118 0.66385555 1.3085981e-38
-0.12328088 0.029464513 0.66954345 0
0.056755133 0.028735839 0.67097539 1.2348061e-38
0.062257588 0.030026821 0.66378331 1.3270731e-38
-0.34917158 0.043159869 0.66078603 0
-0.12476887 0.049156711 0.66810411 0
0.055820689 0.050530918 0.67230868 1.2624645e-38
0.062083036 0.050203551 0.66572773 1.3638796e-38
-0.33855385 0.06830591 0.66086704 0
-0.12663314 0.070006013 0.66736001 0
0.05529961 0.072523765 0.67327899 1.2440613e-38
0.06231498 0.069968849 0.66625905 1.3639518e-38
-0.31355762 0.098650917 0.66290468 1.2079448e-38
-0.14464399 0.087798074 0.67943519 0
-0.12828848 0.090271294 0.6655581 0
0.054739308 0.093210101 0.67420882 1.2256583e-38
0.06198401 0.089934371 0.6676923 1.3639159e-38
-0.1461096 0.10793047 0.6781795 0
-0.12846765 0.11269413 0.66317976 0
0.056711547 0.11067323 0.67338181 1.2533532e-38
0.062075123 0.10970975 0.66894352 1.3178904e-38
-0.32634252 0.13672483 0.66955835 1.3650717e-38
-0.30626914 0.1348116 0.66384286 1.3557083e-38
-0.29274651 0.13671406 0.66250008 1.4018778e-38
-0.14808421 0.12884068 0.67747819 0
-0.13259043 0.12930687 0.66532773 0
0.056264535 0.13207117 0.67386603 1.2072555e-38
0.062551446 0.13013786 0.66883343 1.2902678e-38
-0.32657522 0.14033324 0.67020738 1.4202453e-38
-0.30808854 0.14531042 0.6671418 1.3741115e-38
-0.29346812 0.1486451 0.6632576 1.3280136e-38
-0.27831578 0.15191405 0.66100001 1.3465247e-38
-0.14759842 0.15008795 0.6743896 0
-0.13624406 0.14572106 0.6667192 0
0.055861525 0.15566115 0.67301768 0
0.062972985 0.15003605 0.669294 1.2442063e-38
-0.32713872 0.16967352 0.67690969 1.3281215e-38
-0.30796301 0.17101827 0.67355639 1.2728037e-38
-0.28786406 0.16952389 0.66569161 0
-0.27347219 0.17050324 0.66081703 0
-0.15181646 0.16757095 0.67625666 0
-0.13553551 0.17020442 0.6620279 0
0.055509716 0.17019099 0.67540646 0
0.06353759 0.16995844 0.66989118 1.1981804e-38
-0.30920094 0.1823222 0.67631608 1.198868e-38
-0.29142326 0.18557167 0.6702137 0
-0.27219293 0.18611419 0.66376352 0
-0.25860175 0.18206492 0.66100001 0
-0.15268977 0.18916823 0.67420578 0
-0.13683093 0.19013748 0.6610533 0
0.052305441 0.19353944 0.67328763 0
0.064190373 0.18999435 0.67042446 0
-0.28480035 0.21879965 0.67657179 1.2358553e-38
-0.27009487 0.2068688 0.6665597 0
-0.25302857 0.2128551 0.66308141 1.2543657e-38
-0.15421547 0.20864707 0.67302001 0
-0.13817702 0.21066831 0.6605168 0
0.054279253 0.21462037 0.66715276 0
0.064399362 0.21025139 0.67115748 0
-0.28071311 0.22068521 0.67511499 1.2636212e-38
-0.25042582 0.2256524 0.66411555 1.3927315e-38
-0.14855798 0.22577968 0.666412 0
0.052730884 0.23481092 0.66998768 0
0.064551502 0.22998565 0.67234039 0
0.051491611 0.25491604 0.67093921 0
0.064695984 0.24622262 0.67318499 0
0.049991213 0.26853219 0.67320299 0
0.064811781 0.2624965 0.67528576 0
0.049082238 -0.083815999 0.68843752 0
0.050304722 -0.071608923 0.68836212 0
-0.22795279 -0.047292542 0.69038957 0
-0.21074633 -0.046513926 0.68299204 1.1800313e-38
-0.19665667 -0.045788482 0.68171436 1.6321869e-38
0.049190324 -0.049686193 0.68950737 0
-0.23122643 -0.032233372 0.69005537 0
-0.21328154 -0.03366857 0.69042945 0
-0.19040042 -0.031312592 0.68220925 0
-0.17304322 -0.026539654 0.68348598 0
0.048948765 -0.029078608 0.68914557 0
-0.22987437 -0.013948688 0.68654156 0
-0.18564281 -0.0097748321 0.69285929 0
-0.17245886 -0.007621536 0.69136643 0
-0.14871365 -0.0074345311 0.69051707 0
-0.13565814 -0.0064565167 0.6836282 0
0.048335981 -0.010252348 0.69147921 0
-0.22820838 0.010189708 0.69513327 0
-0.20521006 0.0074216891 0.69151342 0
-0.18071277 0.010231063 0.68129724 0
-0.16845335 0.0094203129 0.69919336 0
-0.15366755 0.0068164412 0.69755727 0
-0.1386894 0.0057644621 0.68504834 0
0.048614256 0.0099412538 0.69213498 1.2164022e-38
-0.18942444 0.03159225 0.69428003 0
-0.17328151 0.033672858 0.6919902 0
-0.14898053 0.029702809 0.69057816 0
-0.13773882 0.029243886 0.68060452 0
0.048849043 0.030056998 0.69241083 1.2348414e-38
-0.18665437 0.040170856 0.6895504 0
-0.15155226 0.047507849 0.68935943 0
0.051442098 0.052430473 0.68692172 1.2717204e-38
-0.16550273 0.070771359 0.69920087 0
-0.14929348 0.067938015 0.68550313 0
0.051802348 0.07074447 0.68746513 1.2625364e-38
-0.16027248 0.086933732 0.69234103 0
0.051591009 0.090084374 0.68810773 1.253317e-38
-0.16221149 0.10722342 0.69160163 0
0.051057 0.11077706 0.68707579 1.2072195e-38
-0.16397354 0.12639989 0.69084048 0
0.051052917 0.13071059 0.68718195 0
-0.16557053 0.14725745 0.69000226 0
0.050724991 0.15042911 0.68922919 0
-0.16673939 0.16726989 0.68846738 0
-0.15662618 0.17874251 0.68075275 0
0.050501306 0.17081648 0.69011956 0
-0.32509512 0.19273363 0.68503767 0
-0.16708364 0.18928465 0.68536484 0
0.039192162 0.19276896 0.69904763 0
0.053260386 0.19064392 0.6898194 0
-0.18416026 0.21012793 0.69538271 0
-0.17193288 0.20567951 0.68740594 0
0.053300574 0.21042606 0.69062537 0
0.060842108 0.21235088 0.68000001 0
-0.18668485 0.22562371 0.69406855 0
-0.17288803 0.22460878 0.68480235 0
0.053025346 0.23016877 0.6920383 0
0.061080705 0.23594038 0.68266672 0
0.052778516 0.24858609 0.69303036 0
0.06105461 0.24901032 0.68237507 0
0.049638167 0.26736552 0.69086361 0
0.061132897 0.26371187 0.68325007 0
0.037140913 -0.087408863 0.71485299 0
0.044213112 -0.086022139 0.70522821 0
0.038294107 -0.071501687 0.71368074 0
0.044688225 -0.074497715 0.70433414 0
0.038979009 -0.052650154 0.71192521 0
0.043473661 -0.049596302 0.70395434 0
0.037521295 -0.031668961 0.71559042 0
0.042835664 -0.03387139 0.70782715 0
-0.22578183 -0.010496162 0.70754921 0
-0.21320227 -0.0093356892 0.70598537 0
-0.18982396 -0.0044575268 0.70169163 0
-0.1701363 -0.0079366639 0.71017981 0
0.03836314 -0.010181925 0.71592778 0
0.043291092 -0.010602299 0.70536345 1.2257289e-38
-0.22533934 0.0055586286 0.71412742 0
-0.21262431 0.0093388436 0.71507037 0
-0.19106437 0.0069357576 0.71337473 0
-0.172252 0.0078244228 0.70810711 0
0.038337931 0.010984182 0.71540707 0
0.043690976 0.0089213513 0.70527899 1.2441323e-38
-0.22714069 0.028704908 0.70683026 0
-0.2134704 0.026065664 0.70805877 0
-0.19223088 0.026255764 0.70639968 0
-0.16753431 0.029788179 0.70976079 0
-0.15964124 0.035198249 0.71650004 0
0.038433537 0.030140957 0.71677554 1.1795597e-38
0.044689476 0.028877717 0.70440018 1.2717554e-38
-0.18929107 0.043858856 0.71954679 0
-0.17055111 0.042170808 0.70904803 0
-0.15975264 0.041510526 0.71700001 0
0.037370685 0.048838928 0.71568942 1.1794885e-38
0.043838017 0.049782317 0.70369744 1.244061e-38
-0.19042823 0.063701034 0.71760964 0
-0.17506638 0.065373525 0.70653105 0
0.035836447 0.070274077 0.71517444 0
0.043534141 0.069745317 0.70548427 1.253281e-38
-0.19309048 0.08361499 0.7182554 0
-0.17508897 0.0865364 0.70395619 0
0.037483267 0.093898863 0.71268189 0
0.044652529 0.089190021 0.70904672 1.2994148e-38
-0.18848328 0.10381921 0.71340966 0
-0.17611368 0.10601917 0.70214736 0
0.035535645 0.11097529 0.71019638 0
0.045554921 0.10909717 0.70880735 1.2717921e-38
-0.20111512 0.13814397 0.71938777 0
-0.19424836 0.12654954 0.71501303 0
-0.17994213 0.12564276 0.70346081 0
0.034297049 0.13105887 0.71275365 0
0.046303932 0.12936766 0.70773792 1.2257668e-38
-0.18922728 0.14545891 0.70835459 0
0.035941526 0.15099844 0.70866811 0
0.046626821 0.14956799 0.70815909 1.1797408e-38
-0.19160047 0.16481864 0.7074762 0
0.035128191 0.17089497 0.71062845 0
0.047039554 0.16894895 0.70861268 0
-0.22722298 0.19821538 0.71100235 0
-0.20153968 0.18446437 0.7122761 0
-0.18524075 0.18541521 0.70016378 0
0.034675833 0.19139734 0.7113207 0
0.047470391 0.18973042 0.70943505 0
-0.40472317 0.21688667 0.7034629 2.0107309e-38
-0.38486814 0.21424121 0.70260286 0
-0.22006153 0.20339595 0.71920842 0
-0.20401435 0.20506601 0.71059483 0
0.035326704 0.2117103 0.70792305 0
0.048293009 0.20892683 0.70925885 0
-0.39205253 0.22625408 0.70313913 0
-0.2235418 0.22291075 0.71868646 0
-0.20581596 0.22393514 0.70818692 0
-0.19303624 0.22256647 0.70038152 0
0.034162216 0.23136123 0.70944411 0
0.048519958 0.22896779 0.71013832 0
-0.39325994 0.24391948 0.70671618 0
0.033223249 0.2509802 0.70973271 0
0.048646096 0.2477487 0.71127141 0
0.032970142 0.27034336 0.71094501 0
0.050102904 0.26979756 0.71096873 0
0.046671934 0.281293 0.71900004 0
0.03061532 -0.087649994 0.73385996 0
0.031691536 -0.071430728 0.73178494 0
0.041973688 -0.06868422 0.72500002 0
0.032664087 -0.047299586 0.72761309 0
0.032836005 -0.032387037 0.73134154 0
0.042780709 -0.033460237 0.72433341 0
-0.18769754 -0.011294309 0.72877508 0
0.031543985 -0.011128464 0.72973812 0
-0.22283374 0.014486356 0.72122222 0
-0.21542898 0.017716229 0.72125006 0
0.031367891 0.0091041522 0.73012173 0
-0.22333974 0.02149958 0.72491026 0
-0.20932288 0.026025057 0.73318595 0
-0.18820451 0.023793453 0.72451723 0
0.030712649 0.028602533 0.73058718 0
-0.20417558 0.04381232 0.73107117 0
0.034141444 0.048283812 0.7270391 1.1979991e-38
-0.20705514 0.062328879 0.73249549 0
0.034474362 0.068037726 0.72780687 1.2164383e-38
-0.2087926 0.082617082 0.73024774 0
0.034351021 0.087915644 0.72917694 1.2164388e-38
-0.21083941 0.10223415 0.72978234 0
0.033932358 0.10855364 0.72983158 1.1980359e-38
-0.21281189 0.12304204 0.72897297 0
0.033617876 0.12806344 0.73164785 0
0.04168421 0.13136843 0.72000003 1.2626446e-38
-0.21609184 0.14622234 0.72577691 0
0.03296585 0.14778899 0.73030275 0
0.041771054 0.14936844 0.7215001 1.2165828e-38
-0.21597034 0.16403757 0.72358119 0
0.032412797 0.16756362 0.7318961 0
0.0418 0.16973335 0.72200006 0
-0.21770935 0.18268289 0.72185832 0
0.031893693 0.18855447 0.73092538 0
0.042515788 0.18971854 0.72466677 0
-0.23455285 0.21108884 0.73518229 0
0.031618316 0.20913526 0.73235375 0
0.042817548 0.20922634 0.72500008 0
-0.23548356 0.22146815 0.72486156 0
0.028529614 0.22958326 0.73425388 0
0.041433007 0.22818276 0.72855866 0
0.028150303 0.24880898 0.73483175 0
0.04154329 0.2494002 0.72863901 0
0.032165989 0.26495177 0.73276961 0
0.042171098 0.2703287 0.73065221 0
0.025988225 0.28132269 0.72861195 0
0.041696273 0.28365287 0.73162508 0
0.019973686 -0.086552642 0.75900006 0
0.022710765 -0.089087501 0.75429487 0
-0.43185019 -0.065824404 0.752262 0
0.018582458 -0.070522204 0.75786895 0
0.024661975 -0.068344757 0.74642515 0
-0.4350315 -0.055312395 0.75021356 1.6874325e-38
0.023903914 -0.052908622 0.74654698 0
-0.44458506 -0.03421732 0.74941313 1.6689575e-38
-0.43495172 -0.030481242 0.75314462 1.6230395e-38
0.017219301 -0.027815793 0.75500005 0
0.02412276 -0.031413913 0.75020695 0
0.024728179 -0.012370603 0.74699759 0
0.024525948 0.0079752915 0.7477994 0
-0.23729366 0.03276575 0.75774378 0
-0.21920055 0.025593307 0.74435753 0
0.019640278 0.026218247 0.75026697 0
0.026793484 0.028735397 0.74748027 1.1980345e-38
-0.2290462 0.053028271 0.75076503 0
0.018043537 0.046096623 0.75261903 0
0.025845444 0.048926346 0.7459569 0
-0.24057864 0.078840852 0.75749147 0
-0.22521877 0.069677278 0.7454288 0
0.016291078 0.066233233 0.75459915 0
0.025698386 0.068818867 0.7461524 1.1888158e-38
-0.24753717 0.095026538 0.75588083 0
-0.22464083 0.081309631 0.74155575 0
0.015786257 0.08631523 0.75505239 0
0.026229447 0.088548481 0.74616903 1.2072192e-38
-0.22708614 0.10123123 0.74228561 0
0.017333584 0.10761502 0.74992347 0
0.028308235 0.1077265 0.74955142 1.271828e-38
-0.24586183 0.12667444 0.75366569 0
-0.22932909 0.12829466 0.74122763 0
0.016071994 0.12737089 0.75173974 0
0.028674979 0.1279901 0.75002611 1.253425e-38
-0.22518633 0.15360108 0.74186349 0
0.015840443 0.14723992 0.75224876 0
0.029865727 0.14832431 0.74926221 1.216619e-38
0.017430117 0.16698161 0.74887443 0
0.030186107 0.1682297 0.75087309 1.1981801e-38
0.017048642 0.18820077 0.75015217 0
0.031513162 0.18903022 0.74844849 0
0.015817428 0.20828992 0.75083089 0
0.032000922 0.20732722 0.74782002 0
0.014547857 0.22768441 0.75322509 0
0.031685233 0.22822401 0.75161344 0
0.014244907 0.24750058 0.75409794 0
0.032538462 0.24830893 0.75080651 0
0.016591733 0.26786208 0.7475965 0
0.033066623 0.26684004 0.75187021 0
0.015434625 0.28269452 0.75024843 0
0.034321409 0.28643754 0.74999994 0
0.016779199 -0.10525163 0.76977223 0
0.014770353 -0.091530994 0.77168071 0
0.020495128 -0.094026864 0.7662555 0
-0.40338421 -0.067684248 0.77568412 0
-0.36310753 -0.066626944 0.77967954 0
0.013571789 -0.072960027 0.77261287 0
0.020749828 -0.070245974 0.76780003 0
-0.40898469 -0.059736762 0.77832013 0
0.015041361 -0.053000547 0.76899093 0
0.02272475 -0.049054202 0.76668423 0
-0.43449903 -0.020025866 0.76070333 1.650878e-38
0.013919853 -0.033815183 0.77151698 0
0.022523312 -0.035243616 0.76800007 0
0.013616497 -0.013173696 0.77111614 0
0.020341201 -0.010946861 0.76196539 1.1795595e-38
0.013637832 0.0064930618 0.77235776 0
0.020620484 0.0074433796 0.76362741 1.1795595e-38
-0.25454837 0.038681872 0.77061832 0
0.013159663 0.026653234 0.77124476 0
0.020528086 0.027516309 0.76165986 1.2072541e-38
-0.25616199 0.057993859 0.77026987 0
0.012674714 0.046099745 0.77421415 0
0.020611161 0.047506385 0.76367509 1.2625715e-38
-0.27454567 0.076461993 0.77888274 0
-0.2572661 0.07735046 0.76855028 0
0.014673392 0.068492129 0.77441859 1.2809394e-38
0.021011041 0.068315461 0.76474142 1.3086698e-38
-0.26829651 0.098162919 0.77285099 0
0.01254534 0.088748962 0.77151823 1.2533174e-38
0.021270368 0.087670609 0.76548624 1.3363288e-38
-0.26993829 0.11619239 0.77141726 0
-0.25130028 0.11117221 0.76083869 0
0.012729133 0.10747194 0.77296793 1.2534255e-38
0.021148358 0.10775965 0.76787734 1.3364011e-38
-0.28058842 0.13171917 0.77634388 0
-0.27018872 0.13107412 0.76858705 0
-0.25911933 0.12349389 0.76240063 0
0.015620701 0.1314798 0.77689844 1.2903039e-38
0.021507146 0.12780419 0.76651508 1.3271458e-38
0.012193171 0.14803219 0.77479917 1.2441703e-38
0.022089779 0.14801055 0.76856148 1.299559e-38
0.0082981922 0.16662392 0.76833737 0
0.022113875 0.16739905 0.76808882 1.2534615e-38
0.011198029 0.18612969 0.77184236 0
0.02220251 0.18773869 0.76914412 0
0.0067761727 0.20530686 0.77011502 0
0.023398064 0.20745893 0.77137089 0
0.0052406099 0.22523633 0.77206814 0
0.024096208 0.22762837 0.77017283 0
0.0086848307 0.24696478 0.76645511 0
0.024909776 0.2480392 0.76948458 0
0.007553882 0.26660544 0.76837128 0
0.024091389 0.27092624 0.77397108 0
0.0064400733 0.28292406 0.7700792 0
0.027555948 0.2906312 0.76855558 0
0.026978951 0.30085441 0.76900005 0
0.004073428 -0.10588537 0.79353374 0
0.0090315798 -0.087393269 0.7887693 0
-0.44319561 -0.067198493 0.79129791 0
-0.43043327 -0.069376767 0.79224366 0
-0.34865427 -0.064998545 0.78228951 0
-0.33891928 -0.060780637 0.78473073 0
0.010962972 -0.069437921 0.78925002 0
0.020618422 -0.065985091 0.78350008 0
-0.44202214 -0.056345116 0.78970945 0
-0.43190774 -0.054105606 0.79335803 0
-0.41755092 -0.050273687 0.79600006 1.2263078e-38
0.007663358 -0.051880687 0.79071832 0
-0.44270468 -0.030564286 0.79080975 1.2907007e-38
-0.43417019 -0.03443484 0.79363048 1.2539316e-38
-0.412498 -0.037148431 0.78860795 0
-0.00043603318 -0.038423933 0.79922992 0
0.0092010107 -0.035185203 0.78570998 0
-0.46406695 -0.012696488 0.78692341 2.019373e-38
-0.44410479 -0.011056622 0.79363048 1.6965787e-38
-0.43441796 -0.011829238 0.79525942 1.6873954e-38
0.0075036045 -0.01078478 0.78821617 0
-0.46376696 0.0094418842 0.7859031 1.7517886e-38
-0.44803151 0.0097081708 0.79499036 1.5305907e-38
0.0085370857 0.0063626915 0.78692901 0
-0.28053495 0.033985145 0.79103792 0
-0.27400661 0.037162319 0.78591353 0
0.0080814371 0.025884002 0.78770661 1.1980348e-38
-0.28150633 0.050205287 0.78859848 0
-0.27242762 0.056627735 0.78166687 0
0.008213629 0.045894623 0.78874779 1.2440614e-38
-0.46379706 0.066889502 0.79050827 1.7146949e-38
0.012886451 0.067729458 0.78675538 1.3824624e-38
-0.4669247 0.088366359 0.79614383 1.7240224e-38
0.012677497 0.087162539 0.78809166 1.4193047e-38
-0.46741885 0.10296641 0.79840958 1.6963996e-38
0.013036482 0.10759557 0.78851426 1.4193407e-38
-0.4677895 0.12256949 0.79978174 1.7424614e-38
0.013521837 0.12707353 0.78916764 1.4009376e-38
0.013648832 0.14781317 0.79102337 1.3640597e-38
0.016170956 0.17075397 0.78728712 1.2350942e-38
0.014263854 0.18738014 0.79078233 1.198216e-38
0.020526316 0.19842108 0.78000003 1.2074346e-38
0.016061567 0.20879579 0.78833771 0
0.020526318 0.20882106 0.78000003 1.1798845e-38
0.016316904 0.22695005 0.79028559 0
0.020548875 0.22878349 0.78085721 0
-5.2656047e-05 0.24430412 0.78108126 0
0.016123485 0.24582998 0.79154873 0
0.020565791 0.2495316 0.78150004 0
-0.0055224616 0.26557124 0.78794491 0
0.016323535 0.27352035 0.79337233 0
0.021532165 0.2692799 0.78355563 0
-0.0053714775 0.28836021 0.79166526 0
0.017471347 0.2905778 0.79333335 0
0.021891698 0.28923467 0.78333336 0
0.018085968 0.3060737 0.7930001 0
0.022010528 0.30410236 0.78433341 0
-0.00074562943 -0.10706009 0.81721091 0
0.0034062299 -0.096976534 0.80146343 0
-0.40639591 -0.06816417 0.80258465 0
-0.39967546 -0.060728077 0.80500007 0
-0.0010115465 -0.067502439 0.81431794 1.2164375e-38
0.0037640603 -0.073672369 0.80357033 0
-0.42260075 -0.042345967 0.80460018 0
-0.41015774 -0.052251883 0.8043645 0
-0.38724422 -0.049383052 0.81329829 1.1892143e-38
-0.0055059404 -0.059875838 0.81312704 0
0.0025877168 -0.056334257 0.80338806 0
-0.42428777 -0.030857511 0.80384374 1.3001725e-38
-0.41012684 -0.033324264 0.80815619 0
-0.39176369 -0.034705393 0.81586301 1.3460545e-38
-0.0030315705 -0.033345111 0.81673616 0
0.0040247212 -0.025347209 0.8148182 0
-0.42937297 -0.01262326 0.80189157 1.6043469e-38
-0.41150802 -0.013378581 0.81014407 1.2077974e-38
-0.39598641 -0.014537595 0.81615186 1.2261284e-38
-0.0052805576 -0.010900108 0.8105402 0
0.0030719303 -0.0094853817 0.80916679 0
-0.44084811 0.012102808 0.80179995 1.4937121e-38
-0.43236607 0.009867738 0.80348748 1.4475783e-38
-0.40918922 0.01080635 0.8134529 1.1892138e-38
-0.39857984 0.0027216857 0.81760675 1.364458e-38
-0.0023639943 0.0042071315 0.80834752 0
0.0036048403 0.0072847605 0.80614018 1.2994497e-38
-0.40842181 0.022388427 0.81800002 0
-0.39800531 0.022989476 0.81900007 0
-0.0054850299 0.022657815 0.81249988 0
0.0036502425 0.026892863 0.80811906 1.3455472e-38
-0.0065381653 0.042466961 0.81329894 1.2163674e-38
0.0042994805 0.046771683 0.80760968 1.410049e-38
0.0043702307 0.066207334 0.80712986 1.4561828e-38
0.0043566925 0.087018728 0.80785108 1.4654743e-38
0.0049025575 0.10729945 0.80736643 1.4746934e-38
-0.46907711 0.13490365 0.80172324 1.7517884e-38
0.0054614292 0.12769805 0.80811703 1.4378156e-38
-0.47099823 0.15153477 0.80660671 1.8442732e-38
0.0066383416 0.14729518 0.80817395 1.3916466e-38
0.0061461888 0.16764912 0.81018656 1.2995949e-38
0.0061353226 0.18712786 0.81269276 1.2535332e-38
0.0071267784 0.2065073 0.81053245 1.2259108e-38
0.008501377 0.22646973 0.8092196 1.207544e-38
0.0088933278 0.24680988 0.80936182 0
0.011325836 0.26625854 0.80738866 0
0.0096341819 0.28649625 0.81234384 0
0.011124562 0.30939957 0.81116676 0
0.0071842112 0.32041582 0.81900007 0
-0.009195731 -0.10686804 0.82904553 0
-0.3430123 -0.062073339 0.83060008 0
-0.33058625 -0.066689067 0.83613694 0
-0.28273439 -0.06563089 0.83592856 0
-0.0058637825 -0.066406325 0.82602191 0
-0.38520998 -0.055236261 0.82133341 0
-0.37189832 -0.051631093 0.82264745 0
-0.35131031 -0.052868895 0.82924223 0
-0.33266902 -0.055542659 0.83557081 0
-0.31989902 -0.050153002 0.83405471 0
-0.28189242 -0.046029296 0.83816594 0
-0.016048202 -0.05189348 0.83394116 0
-0.38404799 -0.026891541 0.82205886 0
-0.37119794 -0.034169722 0.82479477 0
-0.34829339 -0.035849728 0.83256245 0
-0.33448976 -0.030536991 0.8367784 0
-0.28367874 -0.033586886 0.83611774 0
-0.0071365028 -0.034805611 0.82451367 0
-0.38671708 -0.012494159 0.82141602 1.1983973e-38
-0.37093332 -0.01407645 0.82718849 0
-0.35046995 -0.015065927 0.83527392 0
-0.0092051337 -0.0146074 0.82719457 0
0.0014649124 -0.016114036 0.83500004 0
-0.4037784 0.016323978 0.82100004 0
-0.39074001 0.010595387 0.82303798 1.2168369e-38
-0.36805075 0.010928169 0.83185118 0
-0.35288364 0.0050908891 0.83640784 0
-0.0093641737 0.0090539996 0.8269183 0
-0.40940931 0.026141608 0.82128584 0
-0.38781011 0.023540489 0.82653856 0
-0.37108421 0.02290247 0.83225727 0
-0.35422912 0.022047369 0.83780003 1.2076533e-38
-0.0087169809 0.032031845 0.82713479 1.3270734e-38
-0.0047856336 0.047235664 0.82853305 1.4838408e-38
0.0014403511 0.05617369 0.82100004 1.4746937e-38
-0.0029930579 0.066232324 0.82664508 1.5022807e-38
-0.0034601106 0.085100353 0.8284573 1.511536e-38
-0.0031187935 0.10419977 0.82788318 1.5023523e-38
-0.0029210132 0.1257017 0.82909936 1.456219e-38
0.001440351 0.12531054 0.82100004 1.5023174e-38
-0.0027057806 0.14457814 0.83042789 1.4008664e-38
0.0014416667 0.14992589 0.82175004 1.4101578e-38
-0.0028856909 0.16415077 0.8317517 1.3364375e-38
0.0014412281 0.17006931 0.82150006 1.3456927e-38
-0.0028678139 0.18494862 0.83237374 1.2995586e-38
0.001448371 0.18974563 0.82557148 1.2904478e-38
-0.0027651442 0.20443091 0.83463734 1.2536057e-38
0.0028884721 0.20983158 0.82485729 1.2812279e-38
-0.0010362891 0.22754379 0.83284712 1.2719726e-38
0.0033035097 0.23025565 0.82542866 1.262861e-38
-0.00091185188 0.24626152 0.83392763 1.2167271e-38
0.0034383778 0.25092897 0.82800001 1.2167276e-38
-0.00147193 0.26494738 0.83900005 0
0.0022508756 0.26712385 0.82958925 0
0.0015179387 0.2899524 0.83270049 0
0.0030017546 0.3099204 0.83100003 0
0.002190351 0.32447281 0.83499998 0
-0.32995442 -0.062743865 0.84150004 0
-0.30819619 -0.065861262 0.84632504 0
-0.29416689 -0.066681847 0.85197306 0
-0.27979365 -0.060322527 0.85234088 0
-0.014112776 -0.072434902 0.84034312 0
-0.33090091 -0.046314042 0.84266675 0
-0.30985418 -0.052541241 0.84611696 0
-0.29313082 -0.055764101 0.85334468 0
-0.2488855 -0.044195853 0.85776079 0
-0.022654301 -0.051436238 0.85124457 1.1888526e-38
-0.011464227 -0.056986928 0.84024274 0
-0.3432579 -0.02377544 0.84700006 0
-0.32835853 -0.031486824 0.84506065 0
-0.31050682 -0.034282375 0.84886932 0
-0.29180399 -0.034385085 0.85634059 0
-0.27159607 -0.022303145 0.84977239 0
-0.25225514 -0.033227984 0.85521984 0
-0.02281931 -0.021864839 0.84664071 0
-0.014489193 -0.030593548 0.8482058 1.3455842e-38
-0.34383509 -0.005945615 0.84600008 0
-0.32982752 -0.012918139 0.8461417 0
-0.3091346 -0.01384945 0.85461372 0
-0.29951465 -0.0091741439 0.85563415 0
-0.27110016 -0.0060561509 0.84931242 0
-0.020820601 -0.0021077879 0.8421241 0
-0.012386498 -0.011831502 0.84900004 0
-0.34475026 0.010786314 0.84230006 0
-0.33174971 0.010556685 0.84694886 0
-0.31071898 0.0041346564 0.85486591 0
-0.28046679 0.0089353025 0.84691834 0
-0.26967388 0.0090016238 0.851623 0
-0.024141846 0.011892921 0.84912658 0
-0.012007974 0.0092005609 0.84623641 1.4377437e-38
-0.36148247 0.030984214 0.84100002 0
-0.34985897 0.024801254 0.84374797 0
-0.32652193 0.030121723 0.85419065 0
-0.31395972 0.02617207 0.85614407 0
-0.2719956 0.027450033 0.85159254 0
-0.025571547 0.038815811 0.84966135 1.2164756e-38
-0.011059377 0.025383063 0.84518611 1.4654377e-38
-0.31313336 0.040452633 0.85400003 0
-0.027331417 0.049556985 0.85121351 0
-0.011837471 0.046076134 0.84862292 1.5299389e-38
-0.011716515 0.066891395 0.84913397 1.5391588e-38
-0.011216276 0.085893765 0.84750092 1.5484136e-38
-0.010525384 0.10612948 0.84752357 1.502352e-38
-0.0096081663 0.12561563 0.8474263 1.4562546e-38
-0.010263069 0.14811939 0.84954554 1.4193769e-38
-0.0093246698 0.16660112 0.84874713 1.3640958e-38
-0.0089998785 0.18656936 0.84942997 1.3179984e-38
-0.0087471418 0.20623142 0.84917849 1.2996315e-38
-0.0064717489 0.22518533 0.84681118 1.2628612e-38
-0.0061145215 0.24803358 0.84778285 1.207472e-38
-0.0065221153 0.26743221 0.85198635 0
-0.0062336861 0.29021636 0.84946007 0
-0.0038938019 0.30901897 0.85093337 0
-0.002991053 0.32692266 0.85090011 0
-0.020583816 -0.072633967 0.87881905 0
-0.019098599 -0.067542262 0.87401015 0
-0.31001756 -0.055954389 0.86200005 0
-0.030042743 -0.051433709 0.86823553 1.2902677e-38
-0.30024564 -0.02263158 0.86000001 0
-0.24993317 -0.027121145 0.86124766 0
-0.028927281 -0.027650889 0.87206787 1.4009381e-38
-0.019578256 -0.022669641 0.86791551 1.5299745e-38
-0.28918919 -0.014403661 0.86127436 0
-0.2787447 -0.011638056 0.86596835 0
-0.24578461 -0.005647623 0.86209774 0
-0.028445415 -0.00626936 0.87378323 1.2072919e-38
-0.019053072 -0.0091346493 0.86875004 0
-0.30462521 0.012489316 0.86036372 1.1797769e-38
-0.29094124 0.0061090114 0.86322081 0
-0.27705896 0.0073301685 0.86767125 0
-0.24605978 0.010507878 0.86444932 0
-0.026563875 0.010903614 0.87224495 1.4009013e-38
-0.01911274 0.0073658274 0.86542392 1.2903389e-38
-0.30738756 0.030683121 0.86100012 1.2074001e-38
-0.29188627 0.02899934 0.86594868 0
-0.27643809 0.028815299 0.86938113 0
-0.24613672 0.027215544 0.86485535 0
-0.035916895 0.035657983 0.86938167 1.2902324e-38
-0.01888454 0.026158525 0.8652246 1.5575975e-38
-0.3069846 0.040831581 0.86199999 0
-0.29074991 0.041102257 0.86771429 0
-0.040772144 0.048279259 0.8797316 1.2166219e-38
-0.024120204 0.057445697 0.87512952 1.6405e-38
-0.018279761 0.046010174 0.86484003 1.5668535e-38
-0.018999767 0.064694561 0.86550426 1.5668888e-38
-0.023632413 0.084886946 0.87653452 1.5760726e-38
-0.01834482 0.086056441 0.86681277 1.5299749e-38
-0.023105264 0.10782456 0.87800014 1.5392302e-38
-0.017450437 0.10601425 0.86708724 1.493097e-38
-0.017578401 0.12551543 0.8674016 1.4562544e-38
-0.020024564 0.15557545 0.87800002 1.456255e-38
-0.017678564 0.1440845 0.87042254 1.4285963e-38
-0.020024562 0.17714036 0.87800002 1.3826786e-38
-0.01714926 0.16611493 0.8707546 1.3824989e-38
-0.020024562 0.18484211 0.87800002 1.3641676e-38
-0.016858378 0.18576056 0.86869061 1.3456571e-38
-0.016516261 0.20638868 0.87037408 1.3364736e-38
-0.016074687 0.22562023 0.87080985 1.3088869e-38
-0.015781986 0.24443078 0.87254167 1.235166e-38
-0.014686404 0.26539472 0.87150669 0
-0.014270213 0.28557628 0.86912453 0
-0.014436901 0.30591822 0.87190437 0
-0.010654388 0.33040333 0.86655551 0
-0.013784211 0.34154212 0.87300003 0
-0.20457897 -0.061373685 0.89700001 0
-0.19692984 -0.061442107 0.89800006 0
-0.15144296 -0.064546205 0.89909273 0
-0.04267244 -0.066468038 0.89826053 1.5297224e-38
-0.031774428 -0.06982024 0.88788193 0
-0.22213686 -0.056715794 0.89800006 0
-0.20807694 -0.049874961 0.89547104 0
-0.19436014 -0.054708317 0.89897525 0
-0.15553218 -0.056395173 0.89924079 0
-0.041071564 -0.051831663 0.88952744 1.3363665e-38
-0.20634043 -0.027759166 0.89862669 0
-0.19692986 -0.03623509 0.89800012 0
-0.042926159 -0.026537571 0.89059013 1.3547698e-38
-0.028104197 -0.028326407 0.88825142 1.6038033e-38
-0.043869626 -0.0060906261 0.89255679 0
-0.027814219 -0.0046952539 0.88747019 0
-0.015438598 -0.0077192988 0.88000005 0
-0.04313527 0.013919173 0.88830626 1.2073998e-38
-0.028865332 0.010162572 0.88780957 1.6128055e-38
-0.04781149 0.033958893 0.89618433 1.2994885e-38
-0.027515538 0.025199287 0.88587475 1.61295e-38
-0.046719041 0.047572181 0.89474583 1.207329e-38
-0.027003661 0.045553155 0.88654447 1.6313534e-38
-0.028061952 0.065824695 0.88978088 1.5945469e-38
-0.027814439 0.084452435 0.89094412 1.5761078e-38
-0.027077142 0.105431 0.89068794 1.5391944e-38
-0.02605758 0.12503734 0.89016932 1.493133e-38
-0.026263811 0.14458187 0.88973939 1.4746576e-38
-0.024051152 0.16585395 0.88731211 1.4193044e-38
-0.025933579 0.19080758 0.89302742 1.3180702e-38
-0.023399904 0.20993538 0.88861114 1.373351e-38
-0.024642641 0.2250751 0.89350426 1.3180697e-38
-0.024314171 0.2456712 0.89506012 1.216727e-38
-0.017011404 0.25362721 0.88150001 1.2167266e-38
-0.024598034 0.26509535 0.89625263 0
-0.017030705 0.26939389 0.88250011 0
-0.023575861 0.29072529 0.8930586 0
-0.017065166 0.29011783 0.88428581 0
-0.023423262 0.31308597 0.89497519 0
-0.017917873 0.3124764 0.88289946 0
-0.020397078 0.32949421 0.89433336 0
-0.017156143 0.33065501 0.88900012 0
-0.020435089 0.34582457 0.89600003 0
-0.017214037 0.34584913 0.89200008 0
-0.16371498 -0.064547844 0.91100216 0
-0.14874467 -0.063474059 0.90983701 0
-0.13058618 -0.06310685 0.91321021 0
-0.11440919 -0.065174699 0.91711283 0
-0.051711127 -0.061852708 0.91262162 1.3271462e-38
-0.18983725 -0.044947103 0.90351951 0
-0.1694144 -0.048053525 0.91034263 0
-0.15102318 -0.050392974 0.91494769 0
-0.13023081 -0.049145747 0.91117632 0
-0.11606192 -0.049490493 0.91895211 0
-0.048814029 -0.052732911 0.90564525 1.3640608e-38
-0.037825037 -0.051521968 0.91105503 1.6037314e-38
-0.21183927 -0.023725638 0.90161538 0
-0.19051147 -0.025360424 0.90456879 0
-0.16988151 -0.024152692 0.91287851 0
-0.15037632 -0.029216502 0.91106784 0
-0.13167289 -0.031591237 0.91395152 0
-0.050860681 -0.024195556 0.90932035 1.3547333e-38
-0.035048429 -0.031066719 0.90485811 1.6497927e-38
-0.20492563 -0.0066627245 0.9027921 0
-0.19086018 -0.0058859857 0.9069109 0
-0.1719299 -0.0048820786 0.91519654 0
-0.15456015 -0.011820971 0.90841442 0
-0.13161893 -0.008381281 0.91621315 0
-0.056029443 -0.0089287665 0.91611522 1.1888178e-38
-0.036209278 -0.009015806 0.91479051 1.1890683e-38
-0.20235641 0.0061714291 0.90828574 0
-0.18845855 0.015062882 0.91416925 0
-0.17349315 0.015038559 0.9183107 0
-0.15329513 0.013895085 0.91449642 0
-0.13202779 0.009066537 0.91701663 0
-0.056545958 0.011482969 0.91725117 0
-0.037310593 0.012022185 0.90984154 1.4193765e-38
-0.2002193 0.036840353 0.91300005 0
-0.18665522 0.034242216 0.91475487 0
-0.17679921 0.023849502 0.91610909 0
-0.15264875 0.03416305 0.91150379 0
-0.13243218 0.029862255 0.91867423 0
-0.049196035 0.030593308 0.91899484 1.474622e-38
-0.035098214 0.030449931 0.90669912 1.6221341e-38
-0.20092106 0.046620008 0.9162001 0
-0.18828195 0.049831375 0.91724849 0
-0.17876844 0.041873686 0.91800004 0
-0.1325756 0.040135123 0.91950887 0
-0.0580272 0.046028085 0.91953659 0
-0.037087344 0.05007457 0.91214252 1.6129146e-38
-0.035131104 0.075036548 0.90812051 1.5852913e-38
-0.03425774 0.094929434 0.90824664 1.5483781e-38
-0.034000114 0.1138601 0.90702248 1.5115355e-38
-0.034008637 0.13451909 0.90762126 1.474622e-38
-0.033416979 0.15472165 0.91009235 1.4470347e-38
-0.033255234 0.17348036 0.90927541 1.3825701e-38
-0.033568412 0.19466054 0.9108789 1.3641315e-38
-0.03200724 0.21419996 0.90722322 1.364168e-38
-0.031731375 0.2349596 0.91117799 1.2903755e-38
-0.031218691 0.25460118 0.91091406 1.1798125e-38
-0.03256401 0.273884 0.91532207 0
-0.031259421 0.29469186 0.91388708 0
-0.030743731 0.31448275 0.91399252 0
-0.026251426 0.32935581 0.90643752 0
-0.064421058 0.35753688 0.91800004 0
-0.047194738 0.35604736 0.91500008 0
-0.026847078 0.35038802 0.90850008 0
-0.10479855 -0.081150226 0.92997825 0
-0.12828949 -0.061170179 0.92566681 0
-0.10951023 -0.068717971 0.93145239 0
-0.091090113 -0.062701106 0.93426931 0
-0.066310599 -0.064396508 0.93810523 0
-0.055892177 -0.065426633 0.92748404 0
-0.1465112 -0.04649701 0.92195845 0
-0.13144207 -0.048700102 0.92604631 0
-0.11064748 -0.048812367 0.93298095 0
-0.091561839 -0.050106935 0.9325065 0
-0.072845966 -0.046053823 0.93700165 0
-0.048195072 -0.04815796 0.92516589 1.4654384e-38
-0.036114037 -0.044739768 0.92166674 1.2632249e-38
-0.16225754 -0.026181055 0.9212001 0
-0.15086362 -0.025444593 0.92276603 0
-0.1311352 -0.025456037 0.92958176 0
-0.11228069 -0.028470397 0.93052691 0
-0.091685496 -0.030251414 0.93356335 0
-0.077786647 -0.028589997 0.93572551 0
-0.049248543 -0.027146606 0.92686069 1.4653654e-38
-0.16522749 -0.0048426902 0.92033333 0
-0.15139681 -0.0059119761 0.92394131 0
-0.13161609 -0.0061639803 0.93238389 0
-0.11244073 -0.008920677 0.93150473 0
-0.09216363 -0.011625571 0.93496883 0
-0.075452708 -0.009496877 0.9345746 0
-0.043709897 -0.006614265 0.92580903 1.3180339e-38
-0.037445616 -0.01301579 0.92800003 1.6314623e-38
-0.18238597 0.017754387 0.92000002 0
-0.16751477 0.0090366714 0.92245162 0
-0.15107095 0.013700679 0.92660296 0
-0.12811932 0.011895803 0.93508029 0
-0.11316967 0.014833663 0.92984545 0
-0.093506232 0.0087442361 0.93549639 0
-0.078820646 0.0091319531 0.93864828 0
-0.044204697 0.014881089 0.92890024 1.4284874e-38
-0.035701759 0.0016228072 0.92500007 0
-0.18400002 0.020982457 0.92000002 1.4658011e-38
-0.16722591 0.030152211 0.92489648 0
-0.15167212 0.033489287 0.9300229 0
-0.13442388 0.035183717 0.93595386 0
-0.11195064 0.027774336 0.92790592 0
-0.09323331 0.029246673 0.9377085 0
-0.072168566 0.031729952 0.93513578 0
-0.044076093 0.033933174 0.92941362 1.6220978e-38
-0.20341265 0.053636376 0.92343014 0
-0.18346633 0.055012632 0.92220002 0
-0.17097037 0.047834709 0.92354792 0
-0.14831153 0.054177076 0.93399513 0
-0.13837993 0.050330639 0.93604946 0
-0.11932594 0.042161737 0.92683327 0
-0.093522646 0.043308813 0.93918645 0
-0.070089802 0.043221213 0.93514544 0
-0.043509208 0.05392722 0.92763817 1.594474e-38
-0.1801316 0.060043864 0.92500007 0
-0.16858828 0.062210128 0.92746174 0
-0.15074289 0.063906632 0.93400013 0
-0.1398772 0.064178951 0.93800008 0
-0.040791415 0.069647357 0.92381811 1.5576326e-38
-0.042784095 0.092199422 0.92886031 1.49306e-38
-0.043225281 0.11483219 0.9304409 1.4653658e-38
-0.038031198 0.11875065 0.92200863 1.4746932e-38
-0.042221598 0.13591108 0.9323529 1.446927e-38
-0.037203513 0.1310316 0.92200005 1.4746576e-38
-0.04222361 0.15554449 0.9319703 1.4101568e-38
-0.037163164 0.14865965 0.921 1.4746929e-38
-0.042753831 0.17323524 0.93296421 1.354911e-38
-0.037157398 0.16962406 0.92085719 1.4102644e-38
-0.041405261 0.1928176 0.92981273 1.35484e-38
-0.03728421 0.19127898 0.92400014 1.3826057e-38
-0.040714353 0.21405855 0.93000817 1.3456568e-38
-0.035496809 0.20985505 0.9233638 1.3918618e-38
-0.042384449 0.23246427 0.93520898 1.2534962e-38
-0.035750881 0.2290509 0.92600006 1.3273249e-38
-0.041140351 0.25013334 0.93800002 0
-0.037728842 0.25406176 0.93031865 0
-0.03845378 0.27275303 0.93119204 0
-0.036190111 0.28812668 0.92600012 0
-0.038160108 0.30986202 0.93236369 0
-0.037363902 0.33135852 0.93319649 0
-0.065564483 0.35566097 0.93425012 0
-0.053898737 0.35482469 0.92783338 0
-0.033308137 0.34759623 0.9278183 0
-0.059914038 0.36110353 0.92300004 0
-0.034447372 0.36415792 0.93500006 0
-0.086654522 -0.069985464 0.94372129 0
-0.075509712 -0.071814418 0.94923848 0
-0.054253198 -0.062911823 0.95123529 0
-0.1005965 -0.041228075 0.94000006 0
-0.090529084 -0.045742035 0.94321835 0
-0.071946859 -0.050020263 0.94737899 0
-0.054996215 -0.049683109 0.95033264 0
-0.10426868 -0.026971117 0.94140005 0
-0.09075392 -0.025899213 0.94590211 0
-0.070202857 -0.02759096 0.94781256 0
-0.056216307 -0.02769026 0.95262361 0
-0.10787722 -0.0089343889 0.94320005 0
-0.091139704 -0.0062037315 0.94829047 0
-0.068325423 -0.0076039704 0.95247519 0
-0.054077297 -0.0041647376 0.95405078 0
-0.10979472 0.012949921 0.94381332 0
-0.090301529 0.011541227 0.95220292 0
-0.071855053 0.0097062318 0.95064038 0
-0.049663864 0.0079957899 0.94980013 0
-0.12549825 0.028552476 0.94236368 0
-0.11079492 0.033941686 0.94687796 0
-0.089875624 0.03594372 0.95601672 0
-0.073860541 0.029189797 0.95060825 0
-0.051789444 0.029093949 0.94717634 0
-0.12819126 0.053044599 0.94206154 0
-0.11090636 0.053753469 0.94902158 0
-0.094414242 0.054209173 0.95540541 0
-0.072385199 0.044383924 0.94424433 0
-0.050805867 0.054399133 0.94864702 1.2256552e-38
-0.12888126 0.06607423 0.94456518 0
-0.10995476 0.06813585 0.95385718 0
-0.095358886 0.070907794 0.95733327 0
-0.05087772 0.074400932 0.9491505 1.2716819e-38
-0.04994699 0.093462273 0.94982165 1.3639128e-38
-0.0493818 0.11366546 0.94960439 1.4100483e-38
-0.049392112 0.13382921 0.95051718 1.4008655e-38
-0.050410457 0.15373841 0.95235091 1.2810837e-38
-0.050097875 0.17342785 0.95190692 1.2350224e-38
-0.049667347 0.19351327 0.95033944 1.2719365e-38
-0.049615882 0.21353486 0.95231509 1.2719006e-38
-0.047988728 0.23390079 0.95201725 1.1981794e-38
-0.046859197 0.25572789 0.94925398 0
-0.046015646 0.27554205 0.94903708 0
-0.045930751 0.29498762 0.9508332 0
-0.038171932 0.28048071 0.94600004 0
-0.046775796 0.31469044 0.95271158 0
-0.043758422 0.33084318 0.9487105 0
-0.068020567 0.35171285 0.95316666 0
-0.045732636 0.35126707 0.95160007 0
