# .PCD v0.7 - Point Cloud Data file format
VERSION 0.7
FIELDS x y z rgb
SIZE 4 4 4 4
TYPE F F F F
COUNT 1 1 1 1
WIDTH 983
HEIGHT 1
VIEWPOINT 0 0 0 1 0 0 0
POINTS 983
DATA ascii
-0.015146272 -0.0015600411 -0.016751917 2.3418052e-38
-0.015146272 -0.0015600411 -0.016751917 2.3418052e-38
-0.015146272 -0.0015600411 -0.016751917 2.3418052e-38
-0.0336073 0.0047320933 -0.024910659 2.3418052e-38
-0.0336073 0.0047320933 -0.024910659 2.3418052e-38
-0.034787577 0.00094483537 -0.024967927 2.3418052e-38
-0.030017948 0.0055332463 -0.023814427 2.3418052e-38
-0.032175794 0.003469605 -0.023918154 2.3418052e-38
-0.032175794 0.003469605 -0.023918154 2.3418052e-38
-0.040189836 0.0028560495 -0.026634352 2.3418052e-38
-0.040189836 0.0028560495 -0.026634352 2.3418052e-38
-0.040189836 0.0028560495 -0.026634352 2.3418052e-38
-0.052544609 0.0069734254 -0.027920075 2.3418052e-38
-0.052544609 0.0069734254 -0.027920075 2.3418052e-38
-0.068868794 0.014152629 -0.030692553 2.3418052e-38
-0.074853718 0.013788349 -0.03106085 2.3418052e-38
-0.076767318 0.014140409 -0.030816343 2.3418052e-38
-0.07927756 0.015720598 -0.030628318 2.3418052e-38
-0.082559891 0.013551823 -0.029592589 2.3418052e-38
-0.086239733 0.011218528 -0.029648701 2.3418052e-38
-0.089584678 0.013967864 -0.029886629 2.3418052e-38
-0.094931655 0.015064489 -0.029588344 2.3418052e-38
-0.094931655 0.015064489 -0.029588344 2.3418052e-38
-0.10392292 0.017655656 -0.027813436 2.3418052e-38
-0.10720763 0.018169602 -0.027026687 2.3418052e-38
-0.11604972 0.020891285 -0.025490383 2.3418052e-38
-0.12091522 0.024567353 -0.023929695 2.3418052e-38
-0.12091522 0.024567353 -0.023929695 2.3418052e-38
-0.13506758 0.024899628 -0.020536078 2.3418052e-38
-0.14346302 0.015819998 -0.019404344 2.3418052e-38
-0.14694594 0.011781057 -0.016076412 2.3418052e-38
-0.14694594 0.011781057 -0.016076412 2.3418052e-38
-0.16249548 0.013800322 -0.011230742 2.3418052e-38
-0.17370984 0.013695206 -0.0080817519 2.3418052e-38
-0.17370984 0.013695206 -0.0080817519 2.3418052e-38
-0.18413377 0.019844741 -0.001335917 2.3418052e-38
-0.18413377 0.019844741 -0.001335917 2.3418052e-38
-0.18413377 0.019844741 -0.001335917 2.3418052e-38
-0.21011031 0.017896427 0.0078450264 2.3418052e-38
-0.21929878 0.014078078 0.0079827355 2.3418052e-38
-0.22565114 0.015849741 0.010972123 2.3418052e-38
-0.22778158 0.014784015 0.012613096 2.3418052e-38
-0.23788878 0.01648319 0.0155023 2.3418052e-38
-0.24371633 0.014876395 0.016869565 2.3418052e-38
-0.24858195 0.014905108 0.019221218 2.3418052e-38
-0.25263938 0.011214127 0.020672604 2.3418052e-38
-0.25752014 0.013025904 0.02335597 2.3418052e-38
-0.26314968 0.012615938 0.025666911 2.3418052e-38
-0.26540679 0.0070858141 0.026894648 2.3418052e-38
-0.27348602 0.0046352088 0.030025534 2.3418052e-38
-0.27612105 0.00089858467 0.030615926 2.3418052e-38
-0.28096846 -0.0026065393 0.032468587 2.3418052e-38
-0.28259391 -0.0020273596 0.033358425 2.3418052e-38
-0.28535992 -0.0032416738 0.03415912 2.3418052e-38
-0.28620562 -0.0047335122 0.034631204 2.3418052e-38
-0.29023087 -0.0065055978 0.036241986 2.3418052e-38
-0.29023087 -0.0065055978 0.036241986 2.3418052e-38
-0.29591817 -0.0067741689 0.039647061 2.3418052e-38
-0.30249718 -0.0046984409 0.043535899 2.3418052e-38
-0.30634344 -0.005495863 0.044072848 2.3418052e-38
-0.31246859 -0.0038625502 0.046503749 2.3418052e-38
-0.31709105 -0.0059231394 0.047536667 2.3418052e-38
-0.32357544 -0.004019035 0.049464863 2.3418052e-38
-0.32213432 -0.0028027452 0.052576348 2.3418052e-38
-0.32803476 -0.0013677435 0.055241227 2.3418052e-38
-0.33241361 -0.00083045528 0.058447648 2.3418052e-38
-0.33241361 -0.00083045528 0.058447648 2.3418052e-38
-0.33241361 -0.00083045528 0.058447648 2.3418052e-38
-0.34657186 -0.0069557037 0.065658018 2.3418052e-38
-0.35201672 -0.0071062483 0.068076923 2.3418052e-38
-0.36206415 -0.0068650432 0.070206873 2.3418052e-38
-0.36673024 -0.0054011093 0.072099231 2.3418052e-38
-0.37069258 -0.0071988953 0.072709352 2.3418052e-38
-0.37069258 -0.0071988953 0.072709352 2.3418052e-38
-0.37375006 -0.005744643 0.075677343 2.3418052e-38
-0.3755244 -0.0057329107 0.076310381 2.3418052e-38
-0.37542117 -0.0062087579 0.077220775 2.3418052e-38
-0.37988204 -0.0056354017 0.077975556 2.3418052e-38
-0.37971631 -0.0053139855 0.078170933 2.3418052e-38
-0.38452223 -0.0087037571 0.078627042 2.3418052e-38
-0.38452223 -0.0087037571 0.078627042 2.3418052e-38
-0.38998711 -0.0066892654 0.077672139 2.3418052e-38
-0.39218101 -0.0060270769 0.078703664 2.3418052e-38
-0.39258698 -0.0074087013 0.076595731 2.3418052e-38
-0.40217215 -0.0040075351 0.077215381 2.3418052e-38
-0.4066954 -0.0052912463 0.077532612 2.3418052e-38
-0.40949991 -0.00079184765 0.077468596 2.3418052e-38
-0.41517642 0.00061520725 0.076810867 2.3418052e-38
-0.42433882 -0.0034626692 0.074933626 2.3418052e-38
-0.42965049 -0.0033517096 0.074306279 2.3418052e-38
-0.43529522 -0.0020987361 0.073347196 2.3418052e-38
-0.43529522 -0.0020987361 0.073347196 2.3418052e-38
-0.44305485 -0.0054979697 0.06935104 2.3418052e-38
-0.45316932 -0.0046710065 0.067828491 2.3418052e-38
-0.45902988 -0.0054940954 0.06586621 2.3418052e-38
-0.46261701 -0.0026161466 0.064236887 2.3418052e-38
-0.46910906 -0.0033449279 0.062350322 2.3418052e-38
-0.47391704 -0.0028770047 0.060055129 2.3418052e-38
-0.47974125 -0.00085360295 0.058556668 2.3418052e-38
-0.48550159 -0.0042784917 0.054893058 2.3418052e-38
-0.48907235 -0.0069242185 0.0520726 2.3418052e-38
-0.49558693 -0.0049000317 0.049843825 2.3418052e-38
-0.5021041 -0.004151911 0.048043158 2.3418052e-38
-0.51023042 -0.0032245836 0.046912894 2.3418052e-38
-0.51586771 -0.0017025344 0.04516666 2.3418052e-38
-0.52406836 -0.0020631764 0.043648478 2.3418052e-38
-0.53650731 0.001897675 0.040622734 2.3418052e-38
-0.54905164 -0.00011486051 0.037728813 2.3418052e-38
-0.5561657 -0.0036875284 0.034493316 2.3418052e-38
-0.56581801 -0.0041998206 0.033242568 2.3418052e-38
-0.57337219 -0.0022944622 0.032362249 2.3418052e-38
-0.57337219 -0.0022944622 0.032362249 2.3418052e-38
-0.59020114 -0.0036262288 0.026517397 2.3418052e-38
-0.60031915 -0.004262493 0.025555538 2.3418052e-38
-0.60687745 -0.0036707693 0.024680112 2.3418052e-38
-0.61040324 -0.0072871847 0.022076262 2.3418052e-38
-0.62460917 -0.011301485 0.018657103 2.3418052e-38
-0.63053626 -0.012942241 0.018469961 2.3418052e-38
-0.6385777 -0.016145399 0.017281333 2.3418052e-38
-0.64560169 -0.015707133 0.01755329 2.3418052e-38
-0.65852785 -0.018466562 0.016269879 2.3418052e-38
-0.66747051 -0.020022133 0.016654816 2.3418052e-38
-0.66995358 -0.021081032 0.015263086 2.3418052e-38
-0.67620778 -0.021999871 0.01516126 2.3418052e-38
-0.68323046 -0.017244136 0.015240915 2.3418052e-38
-0.68923056 -0.01588916 0.015311736 2.3418052e-38
-0.69451118 -0.01603947 0.016601788 2.3418052e-38
-0.70121503 -0.015371983 0.017267555 2.3418052e-38
-0.7055366 -0.01293043 0.017852683 2.3418052e-38
-0.70982891 -0.017470147 0.017682193 2.3418052e-38
-0.71488196 -0.01040078 0.019290658 2.3418052e-38
-0.72424895 -0.014184779 0.022027247 2.3418052e-38
-0.73010039 -0.018108917 0.024374623 2.3418052e-38
-0.73644251 -0.014127825 0.026746064 2.3418052e-38
-0.74397153 -0.016189398 0.0292893 2.3418052e-38
-0.75156325 -0.016295366 0.032913134 2.3418052e-38
-0.75351435 -0.015970645 0.033375874 2.3418052e-38
-0.75957042 -0.014414081 0.036695771 2.3418052e-38
-0.76544064 -0.015650602 0.039564271 2.3418052e-38
-0.76823235 -0.015634574 0.040960535 2.3418052e-38
-0.77846587 -0.016380377 0.046195153 2.3418052e-38
-0.783243 -0.015634559 0.048660435 2.3418052e-38
-0.79233241 -0.016566699 0.052899089 2.3418052e-38
-0.79725885 -0.015170216 0.055363759 2.3418052e-38
-0.80474329 -0.014458905 0.0587685 2.3418052e-38
-0.81017178 -0.014336219 0.061330747 2.3418052e-38
-0.82885617 -0.014112756 0.067200311 2.3418052e-38
-0.83517414 -0.014041264 0.069025494 2.3418052e-38
-0.83793014 -0.011943938 0.069373198 2.3418052e-38
-0.84929788 -0.015400032 0.072482742 2.3418052e-38
-0.85435444 -0.017120356 0.072670035 2.3418052e-38
-0.86154276 -0.019388143 0.075092599 2.3418052e-38
-0.86547947 -0.018410368 0.076395959 2.3418052e-38
-0.88085306 -0.020780133 0.081979819 2.3418052e-38
-0.88735783 -0.022269741 0.083879955 2.3418052e-38
-0.8926757 -0.023415819 0.08466471 2.3418052e-38
-0.89996362 -0.02245185 0.087966636 2.3418052e-38
-0.90546131 -0.024173746 0.090305664 2.3418052e-38
-0.91109067 -0.025834272 0.092420831 2.3418052e-38
-0.91789591 -0.023909973 0.095216446 2.3418052e-38
-0.9228304 -0.028112793 0.096302591 2.3418052e-38
-0.92887688 -0.027873632 0.098863021 2.3418052e-38
-0.93177849 -0.030068863 0.10015543 2.3418052e-38
-0.93856359 -0.029788263 0.10374703 2.3418052e-38
-0.94615108 -0.028096404 0.10765598 2.3418052e-38
-0.95033342 -0.029096805 0.11032437 2.3418052e-38
-0.95824236 -0.030932881 0.11405502 2.3418052e-38
-0.96405005 -0.032509316 0.11775012 2.3418052e-38
-0.96549392 -0.034123015 0.11861669 2.3418052e-38
-0.9712829 -0.036835387 0.12213233 2.3418052e-38
-0.97918636 -0.033718921 0.12661807 2.3418052e-38
-0.98543513 -0.034393452 0.13010524 2.3418052e-38
-0.98513186 -0.035922606 0.1302079 2.3418052e-38
-0.99397451 -0.034869317 0.13491105 2.3418052e-38
-0.99658656 -0.033069737 0.13612738 2.3418052e-38
-0.99947792 -0.03453603 0.13795161 2.3418052e-38
-1.0083836 -0.035163224 0.14172123 2.3418052e-38
-1.0141979 -0.038109291 0.14351599 2.3418052e-38
-1.0163069 -0.035713818 0.14516586 2.3418052e-38
-1.0215169 -0.036397707 0.14708845 2.3418052e-38
-1.0232646 -0.037138309 0.14730041 2.3418052e-38
-1.0306393 -0.039217781 0.14972404 2.3418052e-38
-1.0324084 -0.039452702 0.14981981 2.3418052e-38
-1.036615 -0.039662797 0.1510002 2.3418052e-38
-1.0404038 -0.042341456 0.1520808 2.3418052e-38
-1.0426682 -0.041420385 0.15304475 2.3418052e-38
-1.0476217 -0.041264854 0.1551937 2.3418052e-38
-1.0516007 -0.044237278 0.15594158 2.3418052e-38
-1.0582939 -0.041109353 0.15833507 2.3418052e-38
-1.0650648 -0.043595765 0.16022299 2.3418052e-38
-1.066805 -0.042154413 0.16000412 2.3418052e-38
-1.0730029 -0.04317018 0.16189305 2.3418052e-38
-1.081724 -0.043762386 0.16389126 2.3418052e-38
-1.0866036 -0.041945562 0.16492054 2.3418052e-38
-1.0921671 -0.042360459 0.16566537 2.3418052e-38
-1.0987357 -0.041297086 0.16779603 2.3418052e-38
-1.1032032 -0.041486066 0.16835421 2.3418052e-38
-1.1114978 -0.042564061 0.17021139 2.3418052e-38
-1.1184232 -0.043439571 0.17149156 2.3418052e-38
-1.1247609 -0.044036705 0.17241743 2.3418052e-38
-1.1315259 -0.041196052 0.17369485 2.3418052e-38
-1.1397681 -0.043198723 0.1750097 2.3418052e-38
-1.1474981 -0.042133588 0.17561822 2.3418052e-38
-1.1521699 -0.044900909 0.17489372 2.3418052e-38
-1.1607262 -0.046085797 0.17593776 2.3418052e-38
-1.1676844 -0.045157988 0.17557102 2.3418052e-38
-1.1738366 -0.043747898 0.17611185 2.3418052e-38
-1.1811359 -0.043901049 0.17758141 2.3418052e-38
-1.1891071 -0.046222456 0.17894843 2.3418052e-38
-1.1932359 -0.046781301 0.17979626 2.3418052e-38
-1.1998138 -0.045841303 0.18118528 2.3418052e-38
-1.208878 -0.045944594 0.18241347 2.3418052e-38
-1.213014 -0.043215621 0.18192551 2.3418052e-38
-1.213014 -0.043215621 0.18192551 2.3418052e-38
-1.213014 -0.043215621 0.18192551 2.3418052e-38
-1.242788 -0.050000239 0.18555437 2.3418052e-38
-1.25227 -0.050576869 0.18542145 2.3418052e-38
-1.2588903 -0.050008036 0.18549174 2.3418052e-38
-1.2674314 -0.046996877 0.18712254 2.3418052e-38
-1.27378 -0.049739517 0.18520826 2.3418052e-38
-1.281459 -0.048704483 0.18441851 2.3418052e-38
-1.281459 -0.048704483 0.18441851 2.3418052e-38
-1.2955128 -0.046098851 0.18351904 2.3418052e-38
-1.3034275 -0.049760278 0.18208288 2.3418052e-38
-1.3100102 -0.044862151 0.18256851 2.3418052e-38
-1.3164752 -0.044188254 0.18178341 2.3418052e-38
-1.3247141 -0.041648369 0.18196359 2.3418052e-38
-1.3318374 -0.042491015 0.18140273 2.3418052e-38
-1.3385018 -0.04180941 0.18078138 2.3418052e-38
-1.3452227 -0.041662645 0.18010172 2.3418052e-38
-1.3526603 -0.042877167 0.18067305 2.3418052e-38
-1.3603169 -0.045406245 0.17967728 2.3418052e-38
-1.3653342 -0.042697687 0.17825021 2.3418052e-38
-1.3714036 -0.03933306 0.17777108 2.3418052e-38
-1.3771808 -0.038369469 0.17749779 2.3418052e-38
-1.3840764 -0.035810161 0.1771045 2.3418052e-38
-1.3897353 -0.036353208 0.1771085 2.3418052e-38
-1.3961613 -0.03451525 0.17749353 2.3418052e-38
-1.4025676 -0.033343054 0.1776364 2.3418052e-38
-1.4074759 -0.033217512 0.1773548 2.3418052e-38
-1.4140774 -0.032834366 0.17783159 2.3418052e-38
-1.421132 -0.033001132 0.17877898 2.3418052e-38
-1.4264932 -0.030273829 0.17863677 2.3418052e-38
-1.4331863 -0.031428158 0.17985998 2.3418052e-38
-1.4372057 -0.031915784 0.17948751 2.3418052e-38
-1.4418335 -0.033083946 0.18063745 2.3418052e-38
-1.4473103 -0.033946797 0.18150946 2.3418052e-38
-1.4520214 -0.029995792 0.18212311 2.3418052e-38
-1.4597653 -0.025750458 0.18558238 2.3418052e-38
-1.4650291 -0.026313979 0.18720585 2.3418052e-38
-1.4684304 -0.028370546 0.1884964 2.3418052e-38
-1.4759949 -0.024276713 0.19051348 2.3418052e-38
-1.4827628 -0.026514301 0.19311538 2.3418052e-38
-1.4884988 -0.025984008 0.19515015 2.3418052e-38
-1.5020219 -0.023832412 0.20028339 2.3418052e-38
-1.5020219 -0.023832412 0.20028339 2.3418052e-38
-1.5183414 -0.022951029 0.20711657 2.3418052e-38
-1.5265657 -0.022787403 0.2100181 2.3418052e-38
-1.5432414 -0.022313144 0.21759801 2.3418052e-38
-1.5521382 -0.023027662 0.22072995 2.3418052e-38
-1.5623463 -0.024430115 0.22468302 2.3418052e-38
-1.5726887 -0.02787427 0.22883742 2.3418052e-38
-1.5803069 -0.025834957 0.23169348 2.3418052e-38
-1.5899456 -0.025715522 0.23535116 2.3418052e-38
-1.5977714 -0.029401325 0.23690374 2.3418052e-38
-1.6076078 -0.029517261 0.24107791 2.3418052e-38
-1.6140862 -0.028479395 0.24220257 2.3418052e-38
-1.6254476 -0.026663855 0.24451275 2.3418052e-38
-1.6343552 -0.025295218 0.24652635 2.3418052e-38
-1.6431793 -0.028587682 0.24969263 2.3418052e-38
-1.652135 -0.030130358 0.25135058 2.3418052e-38
-1.6583282 -0.032247219 0.25237688 2.3418052e-38
-1.6745185 -0.033620656 0.25589195 2.3418052e-38
-1.6820517 -0.034947809 0.26000825 2.3418052e-38
-1.6905174 -0.034580957 0.26263955 2.3418052e-38
-1.696182 -0.035867579 0.2651403 2.3418052e-38
-1.7044196 -0.03562526 0.26830915 2.3418052e-38
-1.7121773 -0.033827487 0.2727578 2.3418052e-38
-1.7194347 -0.038105939 0.27532405 2.3418052e-38
-1.7268844 -0.036499619 0.27897987 2.3418052e-38
-1.7344193 -0.037181344 0.28223106 2.3418052e-38
-1.739934 -0.035132963 0.28491449 2.3418052e-38
-1.7477256 -0.039915387 0.28752512 2.3418052e-38
-1.7521948 -0.039454874 0.289866 2.3418052e-38
-1.7564789 -0.039764404 0.29224575 2.3418052e-38
-1.7644504 -0.040076107 0.29605991 2.3418052e-38
-1.7701803 -0.037486661 0.29958019 2.3418052e-38
-1.7739028 -0.039062161 0.30163831 2.3418052e-38
-1.7798762 -0.042730305 0.30402309 2.3418052e-38
-1.782052 -0.040174674 0.30667269 2.3418052e-38
-1.784376 -0.042421665 0.30945048 2.3418052e-38
-1.7875893 -0.040133618 0.3128804 2.3418052e-38
-1.7912657 -0.042437531 0.3153781 2.3418052e-38
-1.7942154 -0.042986967 0.31833732 2.3418052e-38
-1.7980586 -0.042047717 0.32122755 2.3418052e-38
-1.8011661 -0.044672623 0.32432002 2.3418052e-38
-1.8035755 -0.043258261 0.32741025 2.3418052e-38
-1.8129648 -0.041538186 0.33375219 2.3418052e-38
-1.8155943 -0.042635523 0.33604509 2.3418052e-38
-1.8208764 -0.041501433 0.33919761 2.3418052e-38
-1.8298485 -0.040904745 0.34429228 2.3418052e-38
-1.8344913 -0.041249439 0.34739301 2.3418052e-38
-1.8401994 -0.043828823 0.34979931 2.3418052e-38
-1.8447638 -0.043690085 0.3525134 2.3418052e-38
-1.8535913 -0.045131207 0.35628733 2.3418052e-38
-1.8619778 -0.045456495 0.36001456 2.3418052e-38
-1.8678017 -0.044815537 0.3623839 2.3418052e-38
-1.8739226 -0.045339089 0.36326733 2.3418052e-38
-1.8818094 -0.048293144 0.36492696 2.3418052e-38
-1.8875481 -0.048001748 0.36693615 2.3418052e-38
-1.900068 -0.049604725 0.3685669 2.3418052e-38
-1.9062361 -0.049333718 0.3699019 2.3418052e-38
-1.91651 -0.054168291 0.37178075 2.3418052e-38
-1.9226061 -0.054699577 0.37309349 2.3418052e-38
-1.9314892 -0.054435462 0.3737742 2.3418052e-38
-1.9384052 -0.053919975 0.3754847 2.3418052e-38
-1.9633508 -0.059066746 0.3786172 2.3418052e-38
-1.9715624 -0.061775755 0.3790136 2.3418052e-38
-1.9748614 -0.058565143 0.37764835 2.3418052e-38
-1.9813375 -0.053956289 0.3782621 2.3418052e-38
-1.9891933 -0.058910709 0.3799274 2.3418052e-38
-1.9961015 -0.058882609 0.38092145 2.3418052e-38
-2.0014873 -0.063706435 0.38143548 2.3418052e-38
-2.0078633 -0.062883213 0.38235325 2.3418052e-38
-2.0166655 -0.063277267 0.38497165 2.3418052e-38
-2.0227757 -0.069007538 0.3851274 2.3418052e-38
-2.0266078 -0.066088222 0.38568938 2.3418052e-38
-2.0305853 -0.065737799 0.3863796 2.3418052e-38
-2.0378199 -0.06766241 0.38739547 2.3418052e-38
-2.0449007 -0.069278605 0.38884354 2.3418052e-38
-2.051722 -0.067836352 0.38980183 2.3418052e-38
-2.0597405 -0.067534328 0.39249092 2.3418052e-38
-2.0641973 -0.070127852 0.39216504 2.3418052e-38
-2.0708997 -0.070316695 0.39357987 2.3418052e-38
-2.0744922 -0.068971708 0.39403766 2.3418052e-38
-2.0795712 -0.071485601 0.39580438 2.3418052e-38
-2.0852165 -0.069153823 0.39560348 2.3418052e-38
-2.0894132 -0.067281261 0.39648917 2.3418052e-38
-2.0990896 -0.071061417 0.39908531 2.3418052e-38
-2.1041315 -0.067037463 0.39962938 2.3418052e-38
-2.1087732 -0.071247697 0.40260234 2.3418052e-38
-2.1142488 -0.070164286 0.40401298 2.3418052e-38
-2.1168771 -0.075539455 0.40500453 2.3418052e-38
-2.1218472 -0.073389389 0.40730819 2.3418052e-38
-2.1265736 -0.068682574 0.41032019 2.3418052e-38
-2.1277196 -0.068064861 0.41183189 2.3418052e-38
-2.1342423 -0.071785487 0.41524431 2.3418052e-38
-2.1378567 -0.07248842 0.41831306 2.3418052e-38
-2.1380219 -0.071368672 0.41992027 2.3418052e-38
-2.1439395 -0.074078992 0.42345056 2.3418052e-38
-2.1458962 -0.07547088 0.42547181 2.3418052e-38
-2.1509805 -0.076039195 0.42961106 2.3418052e-38
-2.1533465 -0.077082276 0.43247148 2.3418052e-38
-2.1528285 -0.07601054 0.43443522 2.3418052e-38
-2.1592646 -0.077396773 0.43963942 2.3418052e-38
-2.1628468 -0.074954964 0.44468305 2.3418052e-38
-2.1661332 -0.077439792 0.44874009 2.3418052e-38
-2.1707499 -0.073007226 0.4530535 2.3418052e-38
-2.1753218 -0.07266847 0.45727438 2.3418052e-38
-2.1784141 -0.070613034 0.46146193 2.3418052e-38
-2.1854918 -0.070624076 0.46752971 2.3418052e-38
-2.1877518 -0.068782859 0.47203916 2.3418052e-38
-2.1909039 -0.066736899 0.47691849 2.3418052e-38
-2.1949315 -0.067019239 0.48081484 2.3418052e-38
-2.2002158 -0.067145452 0.48523557 2.3418052e-38
-2.2044623 -0.068259314 0.48859829 2.3418052e-38
-2.20753 -0.067443542 0.49169838 2.3418052e-38
-2.2126555 -0.069487132 0.49587378 2.3418052e-38
-2.2181914 -0.067553259 0.50034058 2.3418052e-38
-2.2217634 -0.071109064 0.50321412 2.3418052e-38
-2.2278559 -0.073452473 0.50744838 2.3418052e-38
-2.2308085 -0.074077889 0.50999194 2.3418052e-38
-2.2357543 -0.074626535 0.51335549 2.3418052e-38
-2.2437654 -0.07613945 0.51725119 2.3418052e-38
-2.2458124 -0.077471286 0.51883692 2.3418052e-38
-2.2531843 -0.080295637 0.52295727 2.3418052e-38
-2.2584457 -0.080022946 0.52555472 2.3418052e-38
-2.2623322 -0.079627663 0.52696997 2.3418052e-38
-2.2666152 -0.081341572 0.5291965 2.3418052e-38
-2.2715781 -0.080763943 0.53105646 2.3418052e-38
-2.27615 -0.077336125 0.53263998 2.3418052e-38
-2.2826707 -0.079946913 0.53527737 2.3418052e-38
-2.2871943 -0.080085367 0.53663385 2.3418052e-38
-2.2947307 -0.081447184 0.53981185 2.3418052e-38
-2.3029675 -0.081732333 0.54304343 2.3418052e-38
-2.307925 -0.083319493 0.54504216 2.3418052e-38
-2.3123803 -0.082056768 0.54675198 2.3418052e-38
-2.316525 -0.083300695 0.54870051 2.3418052e-38
-2.3218184 -0.086939186 0.5510819 2.3418052e-38
-2.3241372 -0.084702551 0.55183458 2.3418052e-38
-2.3318036 -0.089240193 0.55466056 2.3418052e-38
-2.3374054 -0.091306709 0.55755895 2.3418052e-38
-2.3399293 -0.08969143 0.55804598 2.3418052e-38
-2.3413701 -0.088931978 0.55852234 2.3418052e-38
-2.3504484 -0.089929894 0.56107962 2.3418052e-38
-2.3475537 -0.087864667 0.56104761 2.3418052e-38
-2.3529356 -0.087024406 0.5642845 2.3418052e-38
-2.3556638 -0.086435288 0.56573945 2.3418052e-38
-2.3564556 -0.08469452 0.56698185 2.3418052e-38
-2.3617747 -0.087556325 0.57117254 2.3418052e-38
-2.3637319 -0.090308428 0.5734387 2.3418052e-38
-2.3696182 -0.09091799 0.57655251 2.3418052e-38
-2.3739436 -0.092930213 0.57968313 2.3418052e-38
-2.3731751 -0.093048461 0.58051252 2.3418052e-38
-2.3806174 -0.093786843 0.58478928 2.3418052e-38
-2.3891726 -0.096198618 0.59089595 2.3418052e-38
-2.3939009 -0.096903779 0.59422559 2.3418052e-38
-2.3981588 -0.096383855 0.59718889 2.3418052e-38
-2.4029634 -0.095687561 0.60012668 2.3418052e-38
-2.4077294 -0.097024217 0.60318929 2.3418052e-38
-2.410372 -0.094193116 0.60503352 2.3418052e-38
-2.4189801 -0.097910181 0.60967153 2.3418052e-38
-2.4224184 -0.095696419 0.61157537 2.3418052e-38
-2.4325082 -0.097668521 0.61721706 2.3418052e-38
-2.4349971 -0.10027301 0.61766779 2.3418052e-38
-2.4412112 -0.098219387 0.62100226 2.3418052e-38
-2.4509144 -0.10112053 0.6270687 2.3418052e-38
-2.4535134 -0.10039069 0.62870586 2.3418052e-38
-2.4628246 -0.10431745 0.63403648 2.3418052e-38
-2.4693928 -0.10453332 0.63762879 2.3418052e-38
-2.4735637 -0.10787874 0.63931757 2.3418052e-38
-2.4769316 -0.10998028 0.64161265 2.3418052e-38
-2.4838376 -0.10791898 0.64490628 2.3418052e-38
-2.4888794 -0.10745756 0.64716947 2.3418052e-38
-2.4951229 -0.11088686 0.65061837 2.3418052e-38
-2.5018852 -0.11217949 0.65386176 2.3418052e-38
-2.5048749 -0.11429136 0.65426373 2.3418052e-38
-2.5127444 -0.11609821 0.65880209 2.3418052e-38
-2.5140686 -0.12039493 0.65646452 2.3418052e-38
-2.5183835 -0.11935769 0.65742522 2.3418052e-38
-2.5242805 -0.12136415 0.6590091 2.3418052e-38
-2.5277815 -0.11887731 0.65877289 2.3418052e-38
-2.5335588 -0.12089027 0.66051811 2.3418052e-38
-2.5389659 -0.12386837 0.66379875 2.3418052e-38
-2.5425413 -0.12581803 0.66612524 2.3418052e-38
-2.5473628 -0.12415086 0.66638535 2.3418052e-38
-2.5549891 -0.12409354 0.6692642 2.3418052e-38
-2.5564587 -0.12398168 0.66889155 2.3418052e-38
-2.5642061 -0.12614149 0.67276073 2.3418052e-38
-2.5639069 -0.1260557 0.67193395 2.3418052e-38
-2.5705819 -0.12763423 0.67583579 2.3418052e-38
-2.575407 -0.13086109 0.67844027 2.3418052e-38
-2.5771003 -0.12972908 0.67921406 2.3418052e-38
-2.5828626 -0.13355352 0.68102872 2.3418052e-38
-2.5879889 -0.13232529 0.68495828 2.3418052e-38
-2.59198 -0.1350266 0.68763828 2.3418052e-38
-2.5963941 -0.13407214 0.69050044 2.3418052e-38
-2.6013849 -0.13336627 0.69198692 2.3418052e-38
-2.6037319 -0.13374515 0.69420725 2.3418052e-38
-2.6050234 -0.13551608 0.69562602 2.3418052e-38
-2.6088891 -0.13889673 0.69659168 2.3418052e-38
-2.6104319 -0.13561244 0.6982742 2.3418052e-38
-2.6139765 -0.13723876 0.7017597 2.3418052e-38
-2.6153872 -0.13272828 0.70256013 2.3418052e-38
-2.6174924 -0.14204657 0.70569652 2.3418052e-38
-2.6189086 -0.13931395 0.70607734 2.3418052e-38
-2.6242936 -0.142709 0.71125996 2.3418052e-38
-2.6250093 -0.14753444 0.71234602 2.3418052e-38
-2.6285002 -0.14568874 0.71834892 2.3418052e-38
-2.6289725 -0.15120189 0.71978915 2.3418052e-38
-2.6286638 -0.15302736 0.72153944 2.3418052e-38
-2.6303577 -0.15977353 0.72339272 2.3418052e-38
-2.6360319 -0.15572013 0.73124212 2.3418052e-38
-2.6383617 -0.16038658 0.73557287 2.3418052e-38
-2.6428256 -0.16313921 0.73981768 2.3418052e-38
-2.6444712 -0.16218635 0.74226868 2.3418052e-38
-2.6469541 -0.16791551 0.74265236 2.3418052e-38
-2.6523008 -0.15963979 0.74965364 2.3418052e-38
-2.6562493 -0.15910153 0.75695467 2.3418052e-38
-2.6607032 -0.16556655 0.76261747 2.3418052e-38
-2.6702642 -0.17254819 0.77445155 2.3418052e-38
-2.675868 -0.17114486 0.77707028 2.3418052e-38
-2.6819489 -0.17008448 0.78352076 2.3418052e-38
-2.6819489 -0.17008448 0.78352076 2.3418052e-38
-2.6952479 -0.16935401 0.7996822 2.3418052e-38
-2.7029004 -0.17467974 0.80764729 2.3418052e-38
-2.7085404 -0.17636625 0.8130095 2.3418052e-38
-2.7088037 -0.17511392 0.81190449 2.3418052e-38
-2.7221477 -0.17940144 0.8277052 2.3418052e-38
-2.7289715 -0.17996188 0.83589244 2.3418052e-38
-2.7321157 -0.18194187 0.83701122 2.3418052e-38
-2.7361517 -0.18304501 0.84055853 2.3418052e-38
-2.7458119 -0.1851317 0.85144907 2.3418052e-38
-2.7494864 -0.18883039 0.85326868 2.3418052e-38
-2.7438121 -0.18952478 0.84592247 2.3418052e-38
-2.7478185 -0.18735993 0.84554476 2.3418052e-38
-2.76298 -0.1878944 0.86483717 2.3418052e-38
-2.7671838 -0.19168326 0.86818111 2.3418052e-38
-2.7666547 -0.19111 0.86579657 2.3418052e-38
-2.7666004 -0.19145875 0.86454147 2.3418052e-38
-2.7691789 -0.19135278 0.86449176 2.3418052e-38
-2.7805133 -0.19614182 0.87848878 2.3418052e-38
-2.7876742 -0.19968522 0.88708997 2.3418052e-38
-2.7860072 -0.20266065 0.8837623 2.3418052e-38
-2.783797 -0.19930927 0.87982941 2.3418052e-38
-2.7882745 -0.19913355 0.88710207 2.3418052e-38
-2.790273 -0.19763881 0.88903898 2.3418052e-38
-2.7907588 -0.19787982 0.88844067 2.3418052e-38
-2.7893682 -0.1999128 0.88553452 2.3418052e-38
-2.7962153 -0.20332214 0.89412087 2.3418052e-38
-2.7962153 -0.20332214 0.89412087 2.3418052e-38
-2.7962153 -0.20332214 0.89412087 2.3418052e-38
-2.8019123 -0.20414546 0.90685618 2.3418052e-38
-2.8066032 -0.20594434 0.91570729 2.3418052e-38
-2.8066032 -0.20594434 0.91570729 2.3418052e-38
-2.8131731 -0.2127174 0.92918849 2.3418052e-38
-2.8131731 -0.2127174 0.92918849 2.3418052e-38
-2.8153858 -0.21445276 0.9364329 2.3418052e-38
-2.817822 -0.21782684 0.93994278 2.3418052e-38
-2.8170364 -0.21739593 0.93950909 2.3418052e-38
-2.8196387 -0.21672188 0.94423473 2.3418052e-38
-2.8238037 -0.21807037 0.95384896 2.3418052e-38
-2.8250117 -0.21915646 0.95786661 2.3418052e-38
-2.8280003 -0.2208363 0.96229857 2.3418052e-38
-2.8376305 -0.22433235 0.97967815 2.3418052e-38
-2.8410332 -0.22746496 0.98661971 2.3418052e-38
-2.8525639 -0.22692123 1.0065107 2.3418052e-38
-2.860121 -0.23006327 1.021616 2.3418052e-38
-2.8645086 -0.23255838 1.0308821 2.3418052e-38
-2.8686168 -0.22935918 1.0385352 2.3418052e-38
-2.8828692 -0.23513189 1.0565351 2.3418052e-38
-2.8913867 -0.23726521 1.0683228 2.3418052e-38
-2.9005749 -0.23717661 1.0807233 2.3418052e-38
-2.9136481 -0.24660213 1.0968969 2.3418052e-38
-2.9203744 -0.24843317 1.1039797 2.3418052e-38
-2.9262137 -0.24661943 1.1100974 2.3418052e-38
-2.9371781 -0.24712697 1.1251782 2.3418052e-38
-2.9432564 -0.2483082 1.1305532 2.3418052e-38
-2.9362652 -0.24611807 1.1218922 2.3418052e-38
-2.955009 -0.25239745 1.1432348 2.3418052e-38
-2.9597225 -0.25123873 1.1470815 2.3418052e-38
-2.9627936 -0.25427327 1.149737 2.3418052e-38
-2.9621987 -0.25555572 1.1488129 2.3418052e-38
-2.9701078 -0.2558727 1.1559098 2.3418052e-38
-2.9778624 -0.25625122 1.1622106 2.3418052e-38
-2.9802885 -0.25306851 1.1639689 2.3418052e-38
-2.9810624 -0.25422645 1.1644217 2.3418052e-38
-2.9873173 -0.25539771 1.1694543 2.3418052e-38
-2.9863398 -0.25442484 1.1661438 2.3418052e-38
-2.9828238 -0.25623152 1.1608162 2.3418052e-38
-2.9781797 -0.25361815 1.1544428 2.3418052e-38
-2.9781816 -0.25191247 1.1542751 2.3418052e-38
-2.9796083 -0.2554937 1.1577352 2.3418052e-38
-2.9791522 -0.25724667 1.156772 2.3418052e-38
-2.9786646 -0.26101327 1.1569024 2.3418052e-38
-2.976593 -0.25457892 1.1532173 2.3418052e-38
-2.9696517 -0.25906536 1.1486317 2.3418052e-38
-2.9681273 -0.25730869 1.145933 2.3418052e-38
-2.9684746 -0.25761884 1.1471157 2.3418052e-38
-2.975481 -0.26222593 1.1554533 2.3418052e-38
-2.9661698 -0.25941643 1.1449903 2.3418052e-38
-2.9696772 -0.26128945 1.1498188 2.3418052e-38
-2.9722877 -0.26265761 1.1522309 2.3418052e-38
-2.976069 -0.26690051 1.1564082 2.3418052e-38
-2.9768474 -0.26855627 1.1580842 2.3418052e-38
-2.9818738 -0.26900187 1.1642523 2.3418052e-38
-2.9803016 -0.26797801 1.1591847 2.3418052e-38
-2.9863381 -0.26716766 1.1648797 2.3418052e-38
-2.9836178 -0.26717982 1.1584885 2.3418052e-38
-2.989023 -0.26403093 1.161936 2.3418052e-38
-2.9884365 -0.26773214 1.1573751 2.3418052e-38
-2.9884233 -0.26782888 1.1546876 2.3418052e-38
-2.9863343 -0.2634252 1.1469065 2.3418052e-38
-2.9880102 -0.25863108 1.1452805 2.3418052e-38
-2.9849854 -0.25555217 1.1359963 2.3418052e-38
-2.9819536 -0.25366661 1.1273097 2.3418052e-38
-2.9812064 -0.25323531 1.1241974 2.3418052e-38
-2.9796672 -0.25364834 1.1180285 2.3418052e-38
-2.9832976 -0.25610271 1.1206568 2.3418052e-38
-2.9889987 -0.25575057 1.1237111 2.3418052e-38
-2.986166 -0.25132287 1.1147492 2.3418052e-38
-2.9886284 -0.25316003 1.1150236 2.3418052e-38
-2.9845307 -0.25208539 1.1073775 2.3418052e-38
-2.9830902 -0.24644926 1.1031634 2.3418052e-38
-2.9816461 -0.24974597 1.0997339 2.3418052e-38
-2.9785748 -0.25091422 1.0926805 2.3418052e-38
-2.9781456 -0.24982768 1.0914754 2.3418052e-38
-2.9779377 -0.24730214 1.08913 2.3418052e-38
-2.9810402 -0.2493178 1.0896739 2.3418052e-38
-2.9808872 -0.25067207 1.0862316 2.3418052e-38
-2.9852941 -0.24958131 1.0925236 2.3418052e-38
-2.9857378 -0.25098032 1.0904181 2.3418052e-38
-2.9925261 -0.25165418 1.097445 2.3418052e-38
-2.9933093 -0.25121468 1.0966306 2.3418052e-38
-2.9973946 -0.25103271 1.1012893 2.3418052e-38
-3.0006683 -0.25021642 1.1036767 2.3418052e-38
-3.0004406 -0.24921189 1.1027529 2.3418052e-38
-3.0016949 -0.25060257 1.1034632 2.3418052e-38
-3.0012968 -0.24953963 1.1024601 2.3418052e-38
-3.0034347 -0.24715208 1.104352 2.3418052e-38
-3.0054591 -0.25061589 1.1066374 2.3418052e-38
-3.0044568 -0.24795277 1.1045799 2.3418052e-38
-3.0091813 -0.24453804 1.1100274 2.3418052e-38
-3.008599 -0.24680434 1.1094254 2.3418052e-38
-3.009428 -0.24784613 1.1111461 2.3418052e-38
-3.0092814 -0.24519245 1.1126658 2.3418052e-38
-3.0121114 -0.24405217 1.1183777 2.3418052e-38
-3.0123916 -0.24488907 1.1198031 2.3418052e-38
-3.0130455 -0.24316029 1.1202141 2.3418052e-38
-3.0146706 -0.24089105 1.1248473 2.3418052e-38
-3.0158889 -0.24384174 1.1293253 2.3418052e-38
-3.0162642 -0.2423234 1.1317106 2.3418052e-38
-3.0194764 -0.24299118 1.1402916 2.3418052e-38
-3.0220037 -0.24222751 1.1481996 2.3418052e-38
-3.0245528 -0.24662352 1.15503 2.3418052e-38
-3.0261042 -0.24837735 1.1606007 2.3418052e-38
-3.0285196 -0.24943729 1.1690983 2.3418052e-38
-3.0289826 -0.24891554 1.1738254 2.3418052e-38
-3.0309138 -0.2521567 1.1809368 2.3418052e-38
-3.032654 -0.25274494 1.187418 2.3418052e-38
-3.0345592 -0.25241202 1.1949487 2.3418052e-38
-3.0372727 -0.25261834 1.20346 2.3418052e-38
-3.0397758 -0.25443286 1.2103399 2.3418052e-38
-3.0409238 -0.25359684 1.2142934 2.3418052e-38
-3.0420077 -0.25524619 1.2195339 2.3418052e-38
-3.0407717 -0.25701028 1.2215248 2.3418052e-38
-3.042711 -0.25821817 1.2246195 2.3418052e-38
-3.0407557 -0.25623757 1.2244818 2.3418052e-38
-3.0470254 -0.261841 1.2361606 2.3418052e-38
-3.0496995 -0.26378986 1.2409086 2.3418052e-38
-3.0470824 -0.26179358 1.2378606 2.3418052e-38
-3.0486424 -0.26755509 1.2435979 2.3418052e-38
-3.0478678 -0.26771665 1.244331 2.3418052e-38
-3.0486646 -0.26725233 1.2480367 2.3418052e-38
-3.0505624 -0.27165711 1.254227 2.3418052e-38
-3.0517864 -0.26869804 1.2575842 2.3418052e-38
-3.049372 -0.27011484 1.2567797 2.3418052e-38
-3.0542324 -0.27563196 1.2666744 2.3418052e-38
-3.0559144 -0.27740002 1.2733256 2.3418052e-38
-3.0555117 -0.2781145 1.274544 2.3418052e-38
-3.0559032 -0.28208783 1.2772231 2.3418052e-38
-3.0568562 -0.27788812 1.282266 2.3418052e-38
-3.0565095 -0.28039223 1.28443 2.3418052e-38
-3.0586846 -0.28208813 1.2900226 2.3418052e-38
-3.0618613 -0.28430551 1.2976758 2.3418052e-38
-3.0597563 -0.28157899 1.2984663 2.3418052e-38
-3.0584128 -0.28336293 1.2989767 2.3418052e-38
-3.0601118 -0.28471234 1.3026652 2.3418052e-38
-3.0573556 -0.28411928 1.3012234 2.3418052e-38
-3.0607154 -0.28556955 1.307301 2.3418052e-38
-3.0654519 -0.29063109 1.3146713 2.3418052e-38
-3.0682337 -0.2989203 1.3206905 2.3418052e-38
-3.0782275 -0.3057543 1.3361019 2.3418052e-38
-3.0776465 -0.30941936 1.3361437 2.3418052e-38
-3.0861647 -0.30819932 1.3482451 2.3418052e-38
-3.0964899 -0.30953234 1.3634895 2.3418052e-38
-3.0967236 -0.31095943 1.3646386 2.3418052e-38
-3.098521 -0.31388512 1.3661622 2.3418052e-38
-3.1123843 -0.31568202 1.3844057 2.3418052e-38
-3.1116745 -0.3148959 1.3818903 2.3418052e-38
-3.1120026 -0.31107232 1.3822191 2.3418052e-38
-3.1128387 -0.31018174 1.3824245 2.3418052e-38
-3.1181037 -0.31086704 1.3897712 2.3418052e-38
-3.1163898 -0.30818486 1.3860233 2.3418052e-38
-3.1177044 -0.31092086 1.3868756 2.3418052e-38
-3.1185627 -0.30862895 1.3867809 2.3418052e-38
-3.1313019 -0.31169841 1.4037193 2.3418052e-38
-3.1321824 -0.3077282 1.4027743 2.3418052e-38
-3.1355095 -0.30909047 1.406315 2.3418052e-38
-3.1395636 -0.30835328 1.4099491 2.3418052e-38
-3.1428885 -0.30754033 1.4134419 2.3418052e-38
-3.1457341 -0.30790502 1.4157671 2.3418052e-38
-3.1467326 -0.30910981 1.4164008 2.3418052e-38
-3.1492493 -0.31076938 1.4172366 2.3418052e-38
-3.1498284 -0.31131545 1.416576 2.3418052e-38
-3.1501596 -0.30968755 1.4156623 2.3418052e-38
-3.1542768 -0.31451446 1.4205797 2.3418052e-38
-3.1570625 -0.31513155 1.4224076 2.3418052e-38
-3.161011 -0.31496903 1.4265069 2.3418052e-38
-3.1572912 -0.312648 1.4214342 2.3418052e-38
-3.1623108 -0.31189436 1.4278113 2.3418052e-38
-3.1714461 -0.31547558 1.4404613 2.3418052e-38
-3.1734509 -0.31801876 1.444452 2.3418052e-38
-3.1737881 -0.31673622 1.4459786 2.3418052e-38
-3.1761115 -0.31977767 1.4503447 2.3418052e-38
-3.1764064 -0.32303339 1.452819 2.3418052e-38
-3.1778145 -0.32265458 1.4560778 2.3418052e-38
-3.1764171 -0.32384303 1.4551359 2.3418052e-38
-3.1752357 -0.32531199 1.4556468 2.3418052e-38
-3.1746056 -0.32563198 1.4571346 2.3418052e-38
-3.1765921 -0.32404155 1.4609327 2.3418052e-38
-3.1768782 -0.32278854 1.4615159 2.3418052e-38
-3.1772065 -0.32682976 1.4634019 2.3418052e-38
-3.1775458 -0.33183274 1.4646368 2.3418052e-38
-3.1843984 -0.32826993 1.4742141 2.3418052e-38
-3.1838362 -0.32854754 1.4743296 2.3418052e-38
-3.1864476 -0.33615753 1.4779433 2.3418052e-38
-3.1981986 -0.34078524 1.4951665 2.3418052e-38
-3.1981976 -0.34281579 1.4958181 2.3418052e-38
-3.2001543 -0.3505322 1.4975581 2.3418052e-38
-3.2032063 -0.35530567 1.5017383 2.3418052e-38
-3.2064328 -0.3488414 1.505989 2.3418052e-38
-3.2107468 -0.35044068 1.5112456 2.3418052e-38
-3.2152693 -0.35454267 1.5180026 2.3418052e-38
-3.2155499 -0.36099294 1.5181123 2.3418052e-38
-3.217792 -0.35547966 1.5200731 2.3418052e-38
-3.2264891 -0.350113 1.532073 2.3418052e-38
-3.2272186 -0.35140315 1.5315343 2.3418052e-38
-3.2432885 -0.34645793 1.5522931 2.3418052e-38
-3.2433896 -0.34450009 1.5505432 2.3418052e-38
-3.2459395 -0.34944126 1.5538131 2.3418052e-38
-3.2583284 -0.34208047 1.568941 2.3418052e-38
-3.2574313 -0.34400395 1.5657022 2.3418052e-38
-3.2563107 -0.3441036 1.5649157 2.3418052e-38
-3.2669547 -0.34363502 1.5775362 2.3418052e-38
-3.2683167 -0.34458053 1.5793314 2.3418052e-38
-3.2678409 -0.33755204 1.5800751 2.3418052e-38
-3.2690759 -0.33659846 1.5819575 2.3418052e-38
-3.2725229 -0.34180251 1.5882071 2.3418052e-38
-3.2713678 -0.34417292 1.5888697 2.3418052e-38
-3.2738826 -0.34536925 1.5946833 2.3418052e-38
-3.2746983 -0.34474999 1.5981498 2.3418052e-38
-3.2748306 -0.34579629 1.6007352 2.3418052e-38
-3.2761328 -0.34709245 1.6060175 2.3418052e-38
-3.2830949 -0.34946305 1.6206353 2.3418052e-38
-3.2834518 -0.34883231 1.6236942 2.3418052e-38
-3.2855966 -0.34994808 1.6308711 2.3418052e-38
-3.2856266 -0.35341632 1.6351939 2.3418052e-38
-3.2852833 -0.35636386 1.6386648 2.3418052e-38
-3.2861681 -0.35800442 1.6438807 2.3418052e-38
-3.2871568 -0.3671234 1.6500831 2.3418052e-38
-3.2888553 -0.36939234 1.6583822 2.3418052e-38
-3.2857471 -0.36091569 1.660635 2.3418052e-38
-3.287199 -0.36490059 1.6687357 2.3418052e-38
-3.2838039 -0.36464998 1.6719385 2.3418052e-38
-3.2842937 -0.36408019 1.6779205 2.3418052e-38
-3.285049 -0.3722645 1.6848255 2.3418052e-38
-3.2798762 -0.37108594 1.6852057 2.3418052e-38
-3.2800729 -0.37906629 1.6907313 2.3418052e-38
-3.2792807 -0.38175991 1.695719 2.3418052e-38
-3.2815299 -0.38356543 1.7040128 2.3418052e-38
-3.2815497 -0.38957071 1.710078 2.3418052e-38
-3.2820823 -0.39637193 1.7145269 2.3418052e-38
-3.2829576 -0.40181562 1.7206045 2.3418052e-38
-3.2754426 -0.39731637 1.7161219 2.3418052e-38
-3.2753429 -0.40133721 1.720858 2.3418052e-38
-3.2743697 -0.40153295 1.7231935 2.3418052e-38
-3.2747848 -0.39850551 1.7277365 2.3418052e-38
-3.2757988 -0.40267083 1.7313586 2.3418052e-38
-3.2739534 -0.40313005 1.7331479 2.3418052e-38
-3.2749674 -0.40172786 1.7368431 2.3418052e-38
-3.2757318 -0.408438 1.7398585 2.3418052e-38
-3.2760472 -0.41161302 1.7424206 2.3418052e-38
-3.2758212 -0.4163624 1.7430199 2.3418052e-38
-3.2762036 -0.41312081 1.7467769 2.3418052e-38
-3.2766957 -0.40779793 1.7503166 2.3418052e-38
-3.2757497 -0.4101668 1.750577 2.3418052e-38
-3.2797256 -0.40587875 1.7576158 2.3418052e-38
-3.2742925 -0.41291329 1.7519189 2.3418052e-38
-3.2738779 -0.40912291 1.7543284 2.3418052e-38
-3.2795622 -0.40798214 1.7651882 2.3418052e-38
-3.2804892 -0.40587589 1.7692775 2.3418052e-38
-3.2803948 -0.411028 1.7721767 2.3418052e-38
-3.2797539 -0.41989142 1.7719817 2.3418052e-38
-3.2808414 -0.41684809 1.7753451 2.3418052e-38
-3.2781477 -0.42433771 1.774983 2.3418052e-38
-3.2854507 -0.42087793 1.7866169 2.3418052e-38
-3.2865164 -0.42217794 1.7888378 2.3418052e-38
-3.2863083 -0.41714275 1.7907029 2.3418052e-38
-3.286808 -0.41931161 1.7952623 2.3418052e-38
-3.2847216 -0.42177942 1.7953761 2.3418052e-38
-3.2869477 -0.42162082 1.7999409 2.3418052e-38
-3.285398 -0.42362967 1.8010058 2.3418052e-38
-3.2830331 -0.42241329 1.7992039 2.3418052e-38
-3.285876 -0.42336464 1.802861 2.3418052e-38
-3.2864609 -0.422097 1.8047992 2.3418052e-38
-3.287034 -0.42130044 1.8065213 2.3418052e-38
-3.2867651 -0.42698872 1.8060112 2.3418052e-38
-3.2861431 -0.42733178 1.8063833 2.3418052e-38
-3.2866242 -0.42774272 1.8077408 2.3418052e-38
-3.2866607 -0.43106279 1.8075662 2.3418052e-38
-3.2868304 -0.4318957 1.8078738 2.3418052e-38
-3.2867186 -0.43084994 1.8086541 2.3418052e-38
-3.285476 -0.43494534 1.8064321 2.3418052e-38
-3.2834265 -0.42424369 1.8037035 2.3418052e-38
-3.2866385 -0.4304446 1.8065923 2.3418052e-38
-3.2858217 -0.4364816 1.805419 2.3418052e-38
-3.2819324 -0.4227238 1.8026577 2.3418052e-38
-3.282234 -0.41688937 1.8026861 2.3418052e-38
-3.2811272 -0.41708583 1.8024051 2.3418052e-38
-3.2814796 -0.42286077 1.8004805 2.3418052e-38
-3.2807393 -0.42503744 1.8007871 2.3418052e-38
-3.2852342 -0.42414874 1.8059123 2.3418052e-38
-3.2796874 -0.42271912 1.7995348 2.3418052e-38
-3.2803721 -0.42180175 1.8019711 2.3418052e-38
0 0 0 2.3418052e-38
-0.013129316 -0.0032079993 -0.014054269 2.3418052e-38
-0.0336073 0.0047320933 -0.024910659 2.3418052e-38
-0.052544609 0.0069734254 -0.027920075 2.3418052e-38
-0.068868794 0.014152629 -0.030692553 2.3418052e-38
-0.07927756 0.015720598 -0.030628318 2.3418052e-38
-0.089584678 0.013967864 -0.029886629 2.3418052e-38
-0.10392292 0.017655656 -0.027813436 2.3418052e-38
-0.11604972 0.020891285 -0.025490383 2.3418052e-38
-0.13506758 0.024899628 -0.020536078 2.3418052e-38
-0.14346302 0.015819998 -0.019404344 2.3418052e-38
-0.16249548 0.013800322 -0.011230742 2.3418052e-38
-0.17370984 0.013695206 -0.0080817519 2.3418052e-38
-0.18413377 0.019844741 -0.001335917 2.3418052e-38
-0.21011031 0.017896427 0.0078450264 2.3418052e-38
-0.22565114 0.015849741 0.010972123 2.3418052e-38
-0.23788878 0.01648319 0.0155023 2.3418052e-38
-0.24858195 0.014905108 0.019221218 2.3418052e-38
-0.25752014 0.013025904 0.02335597 2.3418052e-38
-0.26540679 0.0070858141 0.026894648 2.3418052e-38
-0.27612105 0.00089858467 0.030615926 2.3418052e-38
-0.28535992 -0.0032416738 0.03415912 2.3418052e-38
-0.29591817 -0.0067741689 0.039647061 2.3418052e-38
-0.30634344 -0.005495863 0.044072848 2.3418052e-38
-0.31709105 -0.0059231394 0.047536667 2.3418052e-38
-0.32803476 -0.0013677435 0.055241227 2.3418052e-38
-0.34657186 -0.0069557037 0.065658018 2.3418052e-38
-0.36206415 -0.0068650432 0.070206873 2.3418052e-38
-0.37375006 -0.005744643 0.075677343 2.3418052e-38
-0.38452223 -0.0087037571 0.078627042 2.3418052e-38
-0.40217215 -0.0040075351 0.077215381 2.3418052e-38
-0.41517642 0.00061520725 0.076810867 2.3418052e-38
-0.42433882 -0.0034626692 0.074933626 2.3418052e-38
-0.43529522 -0.0020987361 0.073347196 2.3418052e-38
-0.45316932 -0.0046710065 0.067828491 2.3418052e-38
-0.46261701 -0.0026161466 0.064236887 2.3418052e-38
-0.47391704 -0.0028770047 0.060055129 2.3418052e-38
-0.48550159 -0.0042784917 0.054893058 2.3418052e-38
-0.49558693 -0.0049000317 0.049843825 2.3418052e-38
-0.51023042 -0.0032245836 0.046912894 2.3418052e-38
-0.52406836 -0.0020631764 0.043648478 2.3418052e-38
-0.53650731 0.001897675 0.040622734 2.3418052e-38
-0.54905164 -0.00011486051 0.037728813 2.3418052e-38
-0.56581801 -0.0041998206 0.033242568 2.3418052e-38
-0.59020114 -0.0036262288 0.026517397 2.3418052e-38
-0.60031915 -0.004262493 0.025555538 2.3418052e-38
-0.61040324 -0.0072871847 0.022076262 2.3418052e-38
-0.62460917 -0.011301485 0.018657103 2.3418052e-38
-0.6385777 -0.016145399 0.017281333 2.3418052e-38
-0.65852785 -0.018466562 0.016269879 2.3418052e-38
-0.66995358 -0.021081032 0.015263086 2.3418052e-38
-0.68323046 -0.017244136 0.015240915 2.3418052e-38
-0.69451118 -0.01603947 0.016601788 2.3418052e-38
-0.7055366 -0.01293043 0.017852683 2.3418052e-38
-0.72424895 -0.014184779 0.022027247 2.3418052e-38
-0.73644251 -0.014127825 0.026746064 2.3418052e-38
-0.75156325 -0.016295366 0.032913134 2.3418052e-38
-0.76544064 -0.015650602 0.039564271 2.3418052e-38
-0.77846587 -0.016380377 0.046195153 2.3418052e-38
-0.79233241 -0.016566699 0.052899089 2.3418052e-38
-0.80474329 -0.014458905 0.0587685 2.3418052e-38
-0.82885617 -0.014112756 0.067200311 2.3418052e-38
-0.84929788 -0.015400032 0.072482742 2.3418052e-38
-0.86154276 -0.019388143 0.075092599 2.3418052e-38
-0.88085306 -0.020780133 0.081979819 2.3418052e-38
-0.8926757 -0.023415819 0.08466471 2.3418052e-38
-0.90546131 -0.024173746 0.090305664 2.3418052e-38
-0.91789591 -0.023909973 0.095216446 2.3418052e-38
-0.92887688 -0.027873632 0.098863021 2.3418052e-38
-0.93856359 -0.029788263 0.10374703 2.3418052e-38
-0.95033342 -0.029096805 0.11032437 2.3418052e-38
-0.96405005 -0.032509316 0.11775012 2.3418052e-38
-0.97918636 -0.033718921 0.12661807 2.3418052e-38
-0.99397451 -0.034869317 0.13491105 2.3418052e-38
-1.0083836 -0.035163224 0.14172123 2.3418052e-38
-1.0215169 -0.036397707 0.14708845 2.3418052e-38
-1.0324084 -0.039452702 0.14981981 2.3418052e-38
-1.0426682 -0.041420385 0.15304475 2.3418052e-38
-1.0582939 -0.041109353 0.15833507 2.3418052e-38
-1.0730029 -0.04317018 0.16189305 2.3418052e-38
-1.0866036 -0.041945562 0.16492054 2.3418052e-38
-1.0987357 -0.041297086 0.16779603 2.3418052e-38
-1.1114978 -0.042564061 0.17021139 2.3418052e-38
-1.1247609 -0.044036705 0.17241743 2.3418052e-38
-1.1397681 -0.043198723 0.1750097 2.3418052e-38
-1.1521699 -0.044900909 0.17489372 2.3418052e-38
-1.1676844 -0.045157988 0.17557102 2.3418052e-38
-1.1811359 -0.043901049 0.17758141 2.3418052e-38
-1.1932359 -0.046781301 0.17979626 2.3418052e-38
-1.208878 -0.045944594 0.18241347 2.3418052e-38
-1.242788 -0.050000239 0.18555437 2.3418052e-38
-1.2588903 -0.050008036 0.18549174 2.3418052e-38
-1.27378 -0.049739517 0.18520826 2.3418052e-38
-1.2955128 -0.046098851 0.18351904 2.3418052e-38
-1.3100102 -0.044862151 0.18256851 2.3418052e-38
-1.3247141 -0.041648369 0.18196359 2.3418052e-38
-1.3385018 -0.04180941 0.18078138 2.3418052e-38
-1.3526603 -0.042877167 0.18067305 2.3418052e-38
-1.3653342 -0.042697687 0.17825021 2.3418052e-38
-1.3771808 -0.038369469 0.17749779 2.3418052e-38
-1.3897353 -0.036353208 0.1771085 2.3418052e-38
-1.4025676 -0.033343054 0.1776364 2.3418052e-38
-1.4140774 -0.032834366 0.17783159 2.3418052e-38
-1.4264932 -0.030273829 0.17863677 2.3418052e-38
-1.4372057 -0.031915784 0.17948751 2.3418052e-38
-1.4473103 -0.033946797 0.18150946 2.3418052e-38
-1.4597653 -0.025750458 0.18558238 2.3418052e-38
-1.4759949 -0.024276713 0.19051348 2.3418052e-38
-1.4884988 -0.025984008 0.19515015 2.3418052e-38
-1.5020219 -0.023832412 0.20028339 2.3418052e-38
-1.5183414 -0.022951029 0.20711657 2.3418052e-38
-1.5432414 -0.022313144 0.21759801 2.3418052e-38
-1.5623463 -0.024430115 0.22468302 2.3418052e-38
-1.5726887 -0.02787427 0.22883742 2.3418052e-38
-1.5899456 -0.025715522 0.23535116 2.3418052e-38
-1.6076078 -0.029517261 0.24107791 2.3418052e-38
-1.6254476 -0.026663855 0.24451275 2.3418052e-38
-1.6431793 -0.028587682 0.24969263 2.3418052e-38
-1.6583282 -0.032247219 0.25237688 2.3418052e-38
-1.6745185 -0.033620656 0.25589195 2.3418052e-38
-1.6905174 -0.034580957 0.26263955 2.3418052e-38
-1.7044196 -0.03562526 0.26830915 2.3418052e-38
-1.7194347 -0.038105939 0.27532405 2.3418052e-38
-1.7344193 -0.037181344 0.28223106 2.3418052e-38
-1.7477256 -0.039915387 0.28752512 2.3418052e-38
-1.7644504 -0.040076107 0.29605991 2.3418052e-38
-1.7739028 -0.039062161 0.30163831 2.3418052e-38
-1.784376 -0.042421665 0.30945048 2.3418052e-38
-1.7942154 -0.042986967 0.31833732 2.3418052e-38
-1.8035755 -0.043258261 0.32741025 2.3418052e-38
-1.8129648 -0.041538186 0.33375219 2.3418052e-38
-1.8298485 -0.040904745 0.34429228 2.3418052e-38
-1.8401994 -0.043828823 0.34979931 2.3418052e-38
-1.8535913 -0.045131207 0.35628733 2.3418052e-38
-1.8678017 -0.044815537 0.3623839 2.3418052e-38
-1.8818094 -0.048293144 0.36492696 2.3418052e-38
-1.900068 -0.049604725 0.3685669 2.3418052e-38
-1.91651 -0.054168291 0.37178075 2.3418052e-38
-1.9314892 -0.054435462 0.3737742 2.3418052e-38
-1.9633508 -0.059066746 0.3786172 2.3418052e-38
-1.9748614 -0.058565143 0.37764835 2.3418052e-38
-1.9891933 -0.058910709 0.3799274 2.3418052e-38
-2.0014873 -0.063706435 0.38143548 2.3418052e-38
-2.0166655 -0.063277267 0.38497165 2.3418052e-38
-2.0266078 -0.066088222 0.38568938 2.3418052e-38
-2.0378199 -0.06766241 0.38739547 2.3418052e-38
-2.051722 -0.067836352 0.38980183 2.3418052e-38
-2.0641973 -0.070127852 0.39216504 2.3418052e-38
-2.0744922 -0.068971708 0.39403766 2.3418052e-38
-2.0852165 -0.069153823 0.39560348 2.3418052e-38
-2.0990896 -0.071061417 0.39908531 2.3418052e-38
-2.1087732 -0.071247697 0.40260234 2.3418052e-38
-2.1218472 -0.073389389 0.40730819 2.3418052e-38
-2.1342423 -0.071785487 0.41524431 2.3418052e-38
-2.1439395 -0.074078992 0.42345056 2.3418052e-38
-2.1533465 -0.077082276 0.43247148 2.3418052e-38
-2.1628468 -0.074954964 0.44468305 2.3418052e-38
-2.1707499 -0.073007226 0.4530535 2.3418052e-38
-2.1784141 -0.070613034 0.46146193 2.3418052e-38
-2.1877518 -0.068782859 0.47203916 2.3418052e-38
-2.1949315 -0.067019239 0.48081484 2.3418052e-38
-2.2044623 -0.068259314 0.48859829 2.3418052e-38
-2.2126555 -0.069487132 0.49587378 2.3418052e-38
-2.2217634 -0.071109064 0.50321412 2.3418052e-38
-2.2308085 -0.074077889 0.50999194 2.3418052e-38
-2.2437654 -0.07613945 0.51725119 2.3418052e-38
-2.2531843 -0.080295637 0.52295727 2.3418052e-38
-2.2623322 -0.079627663 0.52696997 2.3418052e-38
-2.2715781 -0.080763943 0.53105646 2.3418052e-38
-2.2826707 -0.079946913 0.53527737 2.3418052e-38
-2.2947307 -0.081447184 0.53981185 2.3418052e-38
-2.307925 -0.083319493 0.54504216 2.3418052e-38
-2.3218184 -0.086939186 0.5510819 2.3418052e-38
-2.3318036 -0.089240193 0.55466056 2.3418052e-38
-2.3413701 -0.088931978 0.55852234 2.3418052e-38
-2.3529356 -0.087024406 0.5642845 2.3418052e-38
-2.3617747 -0.087556325 0.57117254 2.3418052e-38
-2.3696182 -0.09091799 0.57655251 2.3418052e-38
-2.3806174 -0.093786843 0.58478928 2.3418052e-38
-2.3891726 -0.096198618 0.59089595 2.3418052e-38
-2.3981588 -0.096383855 0.59718889 2.3418052e-38
-2.4077294 -0.097024217 0.60318929 2.3418052e-38
-2.4189801 -0.097910181 0.60967153 2.3418052e-38
-2.4325082 -0.097668521 0.61721706 2.3418052e-38
-2.4509144 -0.10112053 0.6270687 2.3418052e-38
-2.4628246 -0.10431745 0.63403648 2.3418052e-38
-2.4735637 -0.10787874 0.63931757 2.3418052e-38
-2.4838376 -0.10791898 0.64490628 2.3418052e-38
-2.4951229 -0.11088686 0.65061837 2.3418052e-38
-2.5048749 -0.11429136 0.65426373 2.3418052e-38
-2.5140686 -0.12039493 0.65646452 2.3418052e-38
-2.5242805 -0.12136415 0.6590091 2.3418052e-38
-2.5389659 -0.12386837 0.66379875 2.3418052e-38
-2.5549891 -0.12409354 0.6692642 2.3418052e-38
-2.5642061 -0.12614149 0.67276073 2.3418052e-38
-2.575407 -0.13086109 0.67844027 2.3418052e-38
-2.5879889 -0.13232529 0.68495828 2.3418052e-38
-2.5963941 -0.13407214 0.69050044 2.3418052e-38
