# .PCD v0.7 - Point Cloud Data file format
VERSION 0.7
FIELDS x y z rgb
SIZE 4 4 4 4
TYPE F F F F
COUNT 1 1 1 1
WIDTH 993
HEIGHT 1
VIEWPOINT 0 0 0 1 0 0 0
POINTS 993
DATA ascii
-0.25866666 -0.0024774554 0.024503302 2.3418052e-38
-0.26105446 -0.0096012838 0.025368121 2.3418052e-38
-0.26280981 -0.0081358189 0.026526341 2.3418052e-38
-0.26936996 -0.0082232235 0.028030168 2.3418052e-38
-0.27382281 -0.0055280072 0.029103722 2.3418052e-38
-0.27558121 -0.0068138968 0.031395692 2.3418052e-38
-0.27563423 -0.014583747 0.032249138 2.3418052e-38
-0.27563423 -0.014583747 0.032249138 2.3418052e-38
-0.28280622 -0.009227979 0.034867387 2.3418052e-38
-0.29194856 -0.0072210012 0.037679233 2.3418052e-38
-0.29569674 -0.0076803616 0.039637569 2.3418052e-38
-0.29728749 -0.0011213719 0.041240085 2.3418052e-38
-0.30805552 0.0031518089 0.043353673 2.3418052e-38
-0.31431293 0.0058009382 0.045537211 2.3418052e-38
-0.3177163 0.0092443591 0.04756476 2.3418052e-38
-0.32118383 0.01259687 0.05081372 2.3418052e-38
-0.33012727 0.017955048 0.054374911 2.3418052e-38
-0.33012727 0.017955048 0.054374911 2.3418052e-38
-0.33012727 0.017955048 0.054374911 2.3418052e-38
-0.34435409 0.01302806 0.061584245 2.3418052e-38
-0.35016102 0.015139387 0.06357789 2.3418052e-38
-0.35675558 0.014720779 0.064682946 2.3418052e-38
-0.36208752 0.010722003 0.067030028 2.3418052e-38
-0.37062684 0.011658433 0.068259455 2.3418052e-38
-0.37062684 0.011658433 0.068259455 2.3418052e-38
-0.37412852 0.018915107 0.069807909 2.3418052e-38
-0.38020781 0.025104867 0.071230538 2.3418052e-38
-0.38233614 0.028280733 0.072689019 2.3418052e-38
-0.38664955 0.026009534 0.073011853 2.3418052e-38
-0.38473433 0.029695338 0.073724382 2.3418052e-38
-0.38870472 0.026118675 0.074220784 2.3418052e-38
-0.38870472 0.026118675 0.074220784 2.3418052e-38
-0.39166805 0.02413531 0.072870024 2.3418052e-38
-0.39681858 0.026246034 0.072530948 2.3418052e-38
-0.40193379 0.028446894 0.072880395 2.3418052e-38
-0.40601751 0.031665422 0.07165432 2.3418052e-38
-0.4111985 0.035433736 0.071477741 2.3418052e-38
-0.41404548 0.039396528 0.071796626 2.3418052e-38
-0.41563362 0.039801668 0.071364768 2.3418052e-38
-0.42604998 0.034420136 0.067861237 2.3418052e-38
-0.43633294 0.040554624 0.065129012 2.3418052e-38
-0.44204137 0.043977458 0.063443981 2.3418052e-38
-0.44204137 0.043977458 0.063443981 2.3418052e-38
-0.44951284 0.028847791 0.061666548 2.3418052e-38
-0.45402518 0.028710667 0.059847265 2.3418052e-38
-0.45688668 0.028440002 0.05771409 2.3418052e-38
-0.46572927 0.034721915 0.054635081 2.3418052e-38
-0.47210982 0.033958539 0.052569844 2.3418052e-38
-0.48160663 0.040455405 0.050739355 2.3418052e-38
-0.48621646 0.041091327 0.048755836 2.3418052e-38
-0.49195156 0.044603806 0.045604754 2.3418052e-38
-0.49594426 0.037920672 0.043111373 2.3418052e-38
-0.50483501 0.042281672 0.040284298 2.3418052e-38
-0.51069242 0.045671847 0.038358018 2.3418052e-38
-0.51713043 0.040759131 0.035750657 2.3418052e-38
-0.52432436 0.038316689 0.03451439 2.3418052e-38
-0.52730745 0.036353372 0.031996336 2.3418052e-38
-0.54478592 0.037055448 0.029719794 2.3418052e-38
-0.56258959 0.037839729 0.026088208 2.3418052e-38
-0.5684818 0.036363117 0.02339565 2.3418052e-38
-0.5774793 0.035380654 0.021518014 2.3418052e-38
-0.58713758 0.038357861 0.019342355 2.3418052e-38
-0.58713758 0.038357861 0.019342355 2.3418052e-38
-0.59654427 0.027775211 0.014913375 2.3418052e-38
-0.60130781 0.025885506 0.013584472 2.3418052e-38
-0.60973251 0.02892952 0.010996588 2.3418052e-38
-0.61819881 0.025543936 0.01052409 2.3418052e-38
-0.62555319 0.021573666 0.0064689103 2.3418052e-38
-0.63374907 0.018410346 0.0056425789 2.3418052e-38
-0.64083064 0.022907533 0.0048766769 2.3418052e-38
-0.64558297 0.023086226 0.0039541582 2.3418052e-38
-0.65575796 0.018466795 0.0010769034 2.3418052e-38
-0.66083574 0.017372968 0.00059578312 2.3418052e-38
-0.67111778 0.019432515 -0.00040072246 2.3418052e-38
-0.67357826 0.022656955 -0.0025544195 2.3418052e-38
-0.67636734 0.017094214 -0.0021675227 2.3418052e-38
-0.68506682 0.012297624 -0.00040406582 2.3418052e-38
-0.69378483 0.014654216 9.0989932e-05 2.3418052e-38
-0.69765449 0.017359788 -0.00015978851 2.3418052e-38
-0.70664972 0.021787694 0.0010703936 2.3418052e-38
-0.71370536 0.022784475 0.0026332033 2.3418052e-38
-0.71658099 0.026026834 0.0019841767 2.3418052e-38
-0.72608149 0.026419215 0.0055562542 2.3418052e-38
-0.73318791 0.022695309 0.0081554409 2.3418052e-38
-0.73766947 0.021609176 0.0095341066 2.3418052e-38
-0.74475801 0.022300633 0.011544488 2.3418052e-38
-0.74806839 0.022314798 0.013730175 2.3418052e-38
-0.75419545 0.028682128 0.014700845 2.3418052e-38
-0.75406706 0.027708683 0.016566427 2.3418052e-38
-0.7653439 0.030964764 0.020373963 2.3418052e-38
-0.76873344 0.031709887 0.02185145 2.3418052e-38
-0.77676332 0.035865184 0.024685437 2.3418052e-38
-0.78657061 0.036137458 0.028634351 2.3418052e-38
-0.79208124 0.038496107 0.031323485 2.3418052e-38
-0.79480577 0.042130444 0.032976445 2.3418052e-38
-0.79996181 0.042426616 0.035453774 2.3418052e-38
-0.81043202 0.050056409 0.038263425 2.3418052e-38
-0.82661897 0.052765686 0.042687591 2.3418052e-38
-0.82944471 0.054049917 0.04296698 2.3418052e-38
-0.83987582 0.054533221 0.045548741 2.3418052e-38
-0.84405398 0.045520261 0.047862139 2.3418052e-38
-0.84841555 0.046055857 0.047777124 2.3418052e-38
-0.85746723 0.044314325 0.050777692 2.3418052e-38
-0.86644387 0.044035569 0.05347969 2.3418052e-38
-0.87869084 0.042765513 0.057676282 2.3418052e-38
-0.88823664 0.03766891 0.06030374 2.3418052e-38
-0.89545506 0.04161356 0.061349712 2.3418052e-38
-0.90292758 0.038240448 0.065657258 2.3418052e-38
-0.90890545 0.038901124 0.068188772 2.3418052e-38
-0.91444367 0.038843933 0.070875891 2.3418052e-38
-0.92248303 0.039120309 0.074090883 2.3418052e-38
-0.9251346 0.034666624 0.075680606 2.3418052e-38
-0.931912 0.033735652 0.078695998 2.3418052e-38
-0.94020826 0.035168115 0.082668528 2.3418052e-38
-0.94268447 0.033429533 0.084738836 2.3418052e-38
-0.95037657 0.034058593 0.08784344 2.3418052e-38
-0.95373911 0.032707576 0.090501338 2.3418052e-38
-0.96276408 0.031683825 0.093956485 2.3418052e-38
-0.96846521 0.033126805 0.096055023 2.3418052e-38
-0.96783036 0.030605465 0.097284727 2.3418052e-38
-0.97678655 0.030054895 0.10186899 2.3418052e-38
-0.98147917 0.026555458 0.10466024 2.3418052e-38
-0.98565114 0.028042288 0.10727479 2.3418052e-38
-0.99288994 0.026442967 0.11116124 2.3418052e-38
-0.99652034 0.025210457 0.11325412 2.3418052e-38
-1.0014594 0.029003933 0.11536933 2.3418052e-38
-1.0030428 0.028894857 0.11641225 2.3418052e-38
-1.0102504 0.0274611 0.11971997 2.3418052e-38
-1.0150763 0.028844275 0.12139235 2.3418052e-38
-1.0196733 0.029401705 0.12312236 2.3418052e-38
-1.0219018 0.030754393 0.12432636 2.3418052e-38
-1.0276911 0.027280834 0.12625527 2.3418052e-38
-1.0301206 0.028177513 0.12653455 2.3418052e-38
-1.0345069 0.028043121 0.12819199 2.3418052e-38
-1.0398849 0.025359515 0.1286017 2.3418052e-38
-1.0463667 0.022314247 0.12981667 2.3418052e-38
-1.0500276 0.027476322 0.13069437 2.3418052e-38
-1.0533367 0.023444541 0.13206655 2.3418052e-38
-1.0603049 0.031201391 0.13335241 2.3418052e-38
-1.0635916 0.029287213 0.13432181 2.3418052e-38
-1.0729955 0.030377457 0.13727152 2.3418052e-38
-1.0792552 0.031201743 0.13894309 2.3418052e-38
-1.0852902 0.031541511 0.14077663 2.3418052e-38
-1.0934528 0.029798467 0.14151289 2.3418052e-38
-1.0991675 0.028455378 0.14293799 2.3418052e-38
-1.106709 0.030969542 0.14502738 2.3418052e-38
-1.1112446 0.030510547 0.14392933 2.3418052e-38
-1.1152802 0.032742601 0.14404346 2.3418052e-38
-1.12198 0.032999773 0.14554408 2.3418052e-38
-1.1300756 0.032880001 0.14757302 2.3418052e-38
-1.1364045 0.029746071 0.14809632 2.3418052e-38
-1.1412767 0.032399721 0.14771521 2.3418052e-38
-1.1504961 0.030218929 0.14987302 2.3418052e-38
-1.1587796 0.028892335 0.1507445 2.3418052e-38
-1.1668563 0.02872837 0.15085851 2.3418052e-38
-1.173502 0.02831248 0.15078552 2.3418052e-38
-1.1836853 0.027480174 0.15178755 2.3418052e-38
-1.1892724 0.027846601 0.15178789 2.3418052e-38
-1.1964111 0.026679473 0.15340745 2.3418052e-38
-1.2054505 0.026510922 0.15554254 2.3418052e-38
-1.2144564 0.025530873 0.15733707 2.3418052e-38
-1.2201744 0.025912978 0.1577877 2.3418052e-38
-1.2282408 0.026475759 0.1587259 2.3418052e-38
-1.2348803 0.025123866 0.15907565 2.3418052e-38
-1.2348803 0.025123866 0.15907565 2.3418052e-38
-1.2348803 0.025123866 0.15907565 2.3418052e-38
-1.2615664 0.024784263 0.16143852 2.3418052e-38
-1.2695725 0.025289869 0.16114736 2.3418052e-38
-1.2824154 0.027238552 0.16303235 2.3418052e-38
-1.2913157 0.023992807 0.16335924 2.3418052e-38
-1.3016632 0.027527854 0.16344851 2.3418052e-38
-1.3096927 0.030361779 0.16289079 2.3418052e-38
-1.3096927 0.030361779 0.16289079 2.3418052e-38
-1.324941 0.029550748 0.16148528 2.3418052e-38
-1.3338859 0.03375284 0.16041988 2.3418052e-38
-1.3385983 0.032461073 0.15991099 2.3418052e-38
-1.3443396 0.031462889 0.15883373 2.3418052e-38
-1.3526024 0.033162203 0.15824941 2.3418052e-38
-1.3594041 0.031235695 0.1575972 2.3418052e-38
-1.3650037 0.033290576 0.15645915 2.3418052e-38
-1.3724362 0.034167975 0.15582843 2.3418052e-38
-1.3781201 0.034511603 0.15468825 2.3418052e-38
-1.3842691 0.036077313 0.15380497 2.3418052e-38
-1.3922728 0.033906769 0.15389884 2.3418052e-38
-1.3963006 0.035648867 0.15255047 2.3418052e-38
-1.4070493 0.035601892 0.1547617 2.3418052e-38
-1.4129063 0.034456901 0.15439662 2.3418052e-38
-1.4205303 0.036265712 0.15463699 2.3418052e-38
-1.4265611 0.036938753 0.15465058 2.3418052e-38
-1.4312366 0.039361306 0.15315171 2.3418052e-38
-1.4351811 0.041227527 0.15233628 2.3418052e-38
-1.4402152 0.040956959 0.15232705 2.3418052e-38
-1.4491172 0.039233945 0.1543612 2.3418052e-38
-1.4520094 0.040772498 0.15383519 2.3418052e-38
-1.4578636 0.040691856 0.15404002 2.3418052e-38
-1.4638547 0.04141289 0.15457621 2.3418052e-38
-1.4668106 0.041202106 0.153823 2.3418052e-38
-1.471949 0.041940752 0.15549022 2.3418052e-38
-1.4786632 0.041083958 0.15717188 2.3418052e-38
-1.4870305 0.041953962 0.15976547 2.3418052e-38
-1.4888664 0.043194875 0.15876219 2.3418052e-38
-1.4954109 0.043827016 0.16068423 2.3418052e-38
-1.4993358 0.044500291 0.16176435 2.3418052e-38
-1.5045309 0.047269516 0.16283165 2.3418052e-38
-1.5127422 0.046062503 0.16660796 2.3418052e-38
-1.5251384 0.049219813 0.17167224 2.3418052e-38
-1.5251384 0.049219813 0.17167224 2.3418052e-38
-1.5392329 0.051601075 0.17783073 2.3418052e-38
-1.5451599 0.050793786 0.17929399 2.3418052e-38
-1.5603369 0.058019843 0.18368678 2.3418052e-38
-1.5705985 0.057883102 0.18765312 2.3418052e-38
-1.5791578 0.061040673 0.18888485 2.3418052e-38
-1.5899203 0.05962437 0.1930213 2.3418052e-38
-1.5980922 0.061029717 0.19638848 2.3418052e-38
-1.6070626 0.061129164 0.19946316 2.3418052e-38
-1.6173116 0.056228969 0.20383528 2.3418052e-38
-1.6278837 0.05297194 0.20797582 2.3418052e-38
-1.6350827 0.054042175 0.20877205 2.3418052e-38
-1.6445884 0.056078035 0.21062915 2.3418052e-38
-1.6521323 0.059539102 0.21164504 2.3418052e-38
-1.660558 0.056532137 0.21369746 2.3418052e-38
-1.6690499 0.056947969 0.21530764 2.3418052e-38
-1.6764801 0.052712005 0.21755603 2.3418052e-38
-1.6925347 0.057805929 0.22078063 2.3418052e-38
-1.6984417 0.05677779 0.22312114 2.3418052e-38
-1.7075032 0.059816346 0.22602832 2.3418052e-38
-1.7135209 0.056753434 0.22917767 2.3418052e-38
-1.7215174 0.05636555 0.23157354 2.3418052e-38
-1.7274556 0.057658669 0.23409595 2.3418052e-38
-1.7341508 0.056749146 0.23660445 2.3418052e-38
-1.740165 0.05718692 0.23901562 2.3418052e-38
-1.747297 0.054211643 0.24336037 2.3418052e-38
-1.7532128 0.053565543 0.24643119 2.3418052e-38
-1.7576308 0.053225309 0.24813001 2.3418052e-38
-1.7626342 0.052824989 0.25055835 2.3418052e-38
-1.7666792 0.050278734 0.25274572 2.3418052e-38
-1.7704505 0.050145734 0.25484726 2.3418052e-38
-1.7779138 0.052195281 0.25798497 2.3418052e-38
-1.7842246 0.050862864 0.26124981 2.3418052e-38
-1.7852193 0.050203778 0.26308444 2.3418052e-38
-1.7887619 0.048203919 0.26581705 2.3418052e-38
-1.7922055 0.047093906 0.26852354 2.3418052e-38
-1.7969421 0.049521334 0.27098128 2.3418052e-38
-1.8003074 0.047016911 0.27394459 2.3418052e-38
-1.8040833 0.048551966 0.27633044 2.3418052e-38
-1.8084888 0.04584758 0.28013176 2.3418052e-38
-1.8134037 0.04538592 0.28337538 2.3418052e-38
-1.8160065 0.043617766 0.28579754 2.3418052e-38
-1.8278742 0.042444922 0.29289019 2.3418052e-38
-1.832799 0.044385165 0.29609755 2.3418052e-38
-1.8367068 0.045545094 0.29883555 2.3418052e-38
-1.8440733 0.04285796 0.30343437 2.3418052e-38
-1.8491983 0.043449171 0.30617794 2.3418052e-38
-1.8553495 0.040198285 0.30964893 2.3418052e-38
-1.8615099 0.04309465 0.31240228 2.3418052e-38
-1.8674713 0.043119486 0.31490624 2.3418052e-38
-1.8751832 0.040869445 0.31717977 2.3418052e-38
-1.8816885 0.039112728 0.31915697 2.3418052e-38
-1.8902196 0.03681118 0.32055628 2.3418052e-38
-1.8987653 0.03732514 0.32196853 2.3418052e-38
-1.9078943 0.03659039 0.32405767 2.3418052e-38
-1.9161144 0.034811374 0.32521069 2.3418052e-38
-1.9244735 0.03179979 0.32702625 2.3418052e-38
-1.933735 0.031968351 0.32847697 2.3418052e-38
-1.9429637 0.030995388 0.33045042 2.3418052e-38
-1.9496493 0.03005616 0.33034176 2.3418052e-38
-1.9598123 0.029949544 0.33266422 2.3418052e-38
-1.9858466 0.028145891 0.33617282 2.3418052e-38
-1.991556 0.027376268 0.33581564 2.3418052e-38
-1.9997225 0.027920756 0.33662871 2.3418052e-38
-2.0084739 0.029833892 0.33802101 2.3418052e-38
-2.015343 0.026726374 0.339232 2.3418052e-38
-2.0226653 0.025995746 0.3403455 2.3418052e-38
-2.0311151 0.024694227 0.34214315 2.3418052e-38
-2.0366623 0.026113501 0.34293494 2.3418052e-38
-2.0431287 0.023555035 0.34430403 2.3418052e-38
-2.0511098 0.023825374 0.34488741 2.3418052e-38
-2.0558274 0.019144932 0.34642902 2.3418052e-38
-2.0610275 0.021404302 0.34642553 2.3418052e-38
-2.0669861 0.019449558 0.34742159 2.3418052e-38
-2.0749462 0.019117175 0.34939617 2.3418052e-38
-2.0800564 0.015599255 0.3497487 2.3418052e-38
-2.0878997 0.01423607 0.35108465 2.3418052e-38
-2.0918052 0.015250563 0.35143697 2.3418052e-38
-2.1000714 0.0144529 0.35300085 2.3418052e-38
-2.1029468 0.014692481 0.35299313 2.3418052e-38
-2.1062713 0.015214613 0.35286325 2.3418052e-38
-2.1134942 0.014086615 0.35569954 2.3418052e-38
-2.1196852 0.012475996 0.35702229 2.3418052e-38
-2.1232538 0.014941476 0.35857746 2.3418052e-38
-2.1287718 0.013786524 0.36041319 2.3418052e-38
-2.1334069 0.011754759 0.36200586 2.3418052e-38
-2.1369741 0.0098482911 0.36410382 2.3418052e-38
-2.1416757 0.0080311494 0.36557424 2.3418052e-38
-2.1440222 0.010776238 0.36636445 2.3418052e-38
-2.1503687 0.011109563 0.37006885 2.3418052e-38
-2.1552157 0.011561086 0.37362596 2.3418052e-38
-2.1586101 0.010684325 0.37529081 2.3418052e-38
-2.1609132 0.0083711306 0.37864694 2.3418052e-38
-2.1649072 0.0088276593 0.38121864 2.3418052e-38
-2.1709852 0.0091429129 0.38511816 2.3418052e-38
-2.1755714 0.0088176038 0.38935849 2.3418052e-38
-2.1807115 0.0078715105 0.39376855 2.3418052e-38
-2.1811526 0.010509064 0.39476728 2.3418052e-38
-2.1852329 0.01061034 0.39924109 2.3418052e-38
-2.1916106 0.0086497981 0.40432 2.3418052e-38
-2.1903172 0.0051993965 0.40761301 2.3418052e-38
-2.1926711 0.0047115511 0.41064841 2.3418052e-38
-2.1960337 0.0044942554 0.41528666 2.3418052e-38
-2.2005298 0.0056496221 0.41986778 2.3418052e-38
-2.2018139 0.0062352633 0.42309085 2.3418052e-38
-2.2093678 0.0048444071 0.42990181 2.3418052e-38
-2.2145696 0.0040519368 0.43490171 2.3418052e-38
-2.2191925 0.0048257187 0.4402597 2.3418052e-38
-2.2233918 0.003633559 0.44423881 2.3418052e-38
-2.2293653 8.8589928e-05 0.45024827 2.3418052e-38
-2.2363913 -0.0013680075 0.45473325 2.3418052e-38
-2.2357469 0.00098582893 0.45576847 2.3418052e-38
-2.2436659 -0.0016058296 0.46127087 2.3418052e-38
-2.2488339 -0.0043490184 0.46628249 2.3418052e-38
-2.255053 -0.0055839689 0.47031865 2.3418052e-38
-2.2591047 -0.0055550006 0.47294128 2.3418052e-38
-2.2638614 -0.0077624433 0.47639993 2.3418052e-38
-2.2699013 -0.009410047 0.47996148 2.3418052e-38
-2.2762163 -0.012705238 0.48365247 2.3418052e-38
-2.2815816 -0.012317184 0.48609462 2.3418052e-38
-2.2874365 -0.01267459 0.48912904 2.3418052e-38
-2.2918835 -0.015310234 0.49132115 2.3418052e-38
-2.2995369 -0.014949532 0.49472162 2.3418052e-38
-2.303766 -0.015349357 0.49613184 2.3418052e-38
-2.3115039 -0.019663634 0.50057036 2.3418052e-38
-2.3176894 -0.019156694 0.5027898 2.3418052e-38
-2.3214273 -0.02049526 0.5039137 2.3418052e-38
-2.3291447 -0.019844992 0.50739175 2.3418052e-38
-2.3363533 -0.021480812 0.51031572 2.3418052e-38
-2.3421943 -0.022425195 0.51195472 2.3418052e-38
-2.3456113 -0.024388338 0.51422423 2.3418052e-38
-2.3482127 -0.023950342 0.51561522 2.3418052e-38
-2.3542924 -0.026247554 0.51786536 2.3418052e-38
-2.3603792 -0.027413961 0.5209552 2.3418052e-38
-2.3643868 -0.02800543 0.52296132 2.3418052e-38
-2.3688145 -0.02647135 0.52326614 2.3418052e-38
-2.372947 -0.026367618 0.5253334 2.3418052e-38
-2.3769655 -0.02653335 0.52683717 2.3418052e-38
-2.3807082 -0.028356249 0.52735585 2.3418052e-38
-2.3817151 -0.031663161 0.5279417 2.3418052e-38
-2.3870554 -0.028150044 0.53064942 2.3418052e-38
-2.3851576 -0.028722748 0.52936745 2.3418052e-38
-2.3921914 -0.029477868 0.53334039 2.3418052e-38
-2.3956511 -0.029778406 0.53508526 2.3418052e-38
-2.3970008 -0.027718844 0.53637111 2.3418052e-38
-2.4016411 -0.032892894 0.5398097 2.3418052e-38
-2.4042182 -0.033626005 0.54228586 2.3418052e-38
-2.408138 -0.034101505 0.54399395 2.3418052e-38
-2.4113107 -0.034564566 0.54645586 2.3418052e-38
-2.4140961 -0.037895184 0.54904824 2.3418052e-38
-2.4199307 -0.037772484 0.55255562 2.3418052e-38
-2.422076 -0.039909314 0.55357838 2.3418052e-38
-2.427475 -0.041074742 0.55776536 2.3418052e-38
-2.4307714 -0.041234408 0.56018996 2.3418052e-38
-2.4372432 -0.042895861 0.56366229 2.3418052e-38
-2.4392114 -0.041225459 0.56512117 2.3418052e-38
-2.4488456 -0.043647658 0.57045496 2.3418052e-38
-2.4557383 -0.04261148 0.57423306 2.3418052e-38
-2.4613395 -0.042032957 0.57571018 2.3418052e-38
-2.4659784 -0.042762809 0.57842547 2.3418052e-38
-2.4771156 -0.045257378 0.58454049 2.3418052e-38
-2.4808962 -0.047872648 0.58738124 2.3418052e-38
-2.4889677 -0.046315808 0.59259421 2.3418052e-38
-2.4911139 -0.048237149 0.59426206 2.3418052e-38
-2.4994845 -0.046702027 0.59698611 2.3418052e-38
-2.5071208 -0.050074141 0.60138643 2.3418052e-38
-2.5109048 -0.049201638 0.60213089 2.3418052e-38
-2.5171123 -0.050583567 0.60570645 2.3418052e-38
-2.5237179 -0.054717518 0.61046326 2.3418052e-38
-2.5313697 -0.057565335 0.61392933 2.3418052e-38
-2.5350885 -0.060441706 0.6163854 2.3418052e-38
-2.5378232 -0.06220194 0.61744153 2.3418052e-38
-2.5456917 -0.065886721 0.61967427 2.3418052e-38
-2.5491524 -0.066430077 0.62073493 2.3418052e-38
-2.5581915 -0.069187514 0.62470675 2.3418052e-38
-2.5624602 -0.070713677 0.62508208 2.3418052e-38
-2.5663383 -0.066774994 0.62540978 2.3418052e-38
-2.5716474 -0.069141515 0.62752974 2.3418052e-38
-2.5781164 -0.070010141 0.62985438 2.3418052e-38
-2.5818794 -0.067128606 0.62986755 2.3418052e-38
-2.5846822 -0.068435967 0.63032621 2.3418052e-38
-2.5891938 -0.066820554 0.63123173 2.3418052e-38
-2.5954545 -0.065422907 0.63275099 2.3418052e-38
-2.5984097 -0.0658888 0.63446921 2.3418052e-38
-2.6016309 -0.06708312 0.6363923 2.3418052e-38
-2.6077805 -0.070071496 0.64052325 2.3418052e-38
-2.611774 -0.072217412 0.64268273 2.3418052e-38
-2.6138687 -0.073890947 0.64429337 2.3418052e-38
-2.6182904 -0.074207351 0.64648694 2.3418052e-38
-2.6235454 -0.074297465 0.64910221 2.3418052e-38
-2.6249595 -0.071491316 0.64817351 2.3418052e-38
-2.6272786 -0.0721476 0.64958924 2.3418052e-38
-2.6367667 -0.077192239 0.65631866 2.3418052e-38
-2.642472 -0.077446893 0.6602217 2.3418052e-38
-2.6455574 -0.085272588 0.66396976 2.3418052e-38
-2.6492989 -0.083764993 0.66434878 2.3418052e-38
-2.6533852 -0.086550742 0.66673934 2.3418052e-38
-2.657346 -0.087159544 0.67069298 2.3418052e-38
-2.6623333 -0.088243723 0.6759029 2.3418052e-38
-2.6650383 -0.089095436 0.67792016 2.3418052e-38
-2.6672044 -0.092001617 0.67939442 2.3418052e-38
-2.6708844 -0.094657347 0.68553978 2.3418052e-38
-2.6735377 -0.097009167 0.68947434 2.3418052e-38
-2.6755219 -0.098663807 0.69329923 2.3418052e-38
-2.6765711 -0.1021975 0.69536555 2.3418052e-38
-2.6795187 -0.1002859 0.69832945 2.3418052e-38
-2.6833277 -0.10527956 0.70298946 2.3418052e-38
-2.686739 -0.10785457 0.70923108 2.3418052e-38
-2.6856947 -0.10691152 0.7098276 2.3418052e-38
-2.6911125 -0.1089896 0.71400744 2.3418052e-38
-2.6918244 -0.11144234 0.71783638 2.3418052e-38
-2.7017055 -0.11092363 0.72765255 2.3418052e-38
-2.703629 -0.11081901 0.7316376 2.3418052e-38
-2.7082024 -0.1166946 0.7376883 2.3418052e-38
-2.7109411 -0.11880819 0.740385 2.3418052e-38
-2.7165887 -0.12218369 0.74741471 2.3418052e-38
-2.7304096 -0.12468851 0.76186991 2.3418052e-38
-2.732662 -0.12444396 0.76406616 2.3418052e-38
-2.732662 -0.12444396 0.76406616 2.3418052e-38
-2.7410595 -0.13113821 0.77117658 2.3418052e-38
-2.7439969 -0.13129801 0.77265173 2.3418052e-38
-2.7479253 -0.13231383 0.77438295 2.3418052e-38
-2.7569928 -0.13374567 0.78036201 2.3418052e-38
-2.7619433 -0.13496979 0.78469098 2.3418052e-38
-2.7657292 -0.1351923 0.78630364 2.3418052e-38
-2.7722845 -0.13445051 0.79068714 2.3418052e-38
-2.7767768 -0.13785724 0.7945779 2.3418052e-38
-2.783468 -0.13971874 0.79957694 2.3418052e-38
-2.7880182 -0.14024191 0.80186754 2.3418052e-38
-2.7925124 -0.14143844 0.80535197 2.3418052e-38
-2.7973919 -0.14334807 0.80974472 2.3418052e-38
-2.8028469 -0.1461103 0.8146078 2.3418052e-38
-2.8049269 -0.14714184 0.81512737 2.3418052e-38
-2.8099656 -0.1490705 0.81967539 2.3418052e-38
-2.8146892 -0.15187103 0.82421029 2.3418052e-38
-2.8183713 -0.15196732 0.82652748 2.3418052e-38
-2.8204174 -0.15464647 0.82942206 2.3418052e-38
-2.8239124 -0.15374069 0.8308717 2.3418052e-38
-2.8271568 -0.14950703 0.83191204 2.3418052e-38
-2.8276322 -0.1558582 0.83582824 2.3418052e-38
-2.8317878 -0.15623297 0.83968365 2.3418052e-38
-2.836503 -0.15730916 0.84406918 2.3418052e-38
-2.8366361 -0.15878077 0.8464098 2.3418052e-38
-2.8394792 -0.15780056 0.84842771 2.3418052e-38
-2.8392682 -0.15718551 0.8495909 2.3418052e-38
-2.8392682 -0.15718551 0.8495909 2.3418052e-38
-2.8392682 -0.15718551 0.8495909 2.3418052e-38
-2.8426054 -0.15847625 0.85472649 2.3418052e-38
-2.8449774 -0.16143461 0.86039621 2.3418052e-38
-2.8449774 -0.16143461 0.86039621 2.3418052e-38
-2.8457139 -0.16125359 0.86468124 2.3418052e-38
-2.8457139 -0.16125359 0.86468124 2.3418052e-38
-2.8464215 -0.16716601 0.87017596 2.3418052e-38
-2.847384 -0.16713703 0.87286955 2.3418052e-38
-2.8484499 -0.16909547 0.87711632 2.3418052e-38
-2.8497365 -0.16845147 0.87937307 2.3418052e-38
-2.8533623 -0.174762 0.88570541 2.3418052e-38
-2.8551898 -0.18208398 0.89152265 2.3418052e-38
-2.8555982 -0.1779411 0.8912226 2.3418052e-38
-2.8590693 -0.1860899 0.89680636 2.3418052e-38
-2.8633809 -0.19258386 0.90186799 2.3418052e-38
-2.867171 -0.19784792 0.90887952 2.3418052e-38
-2.8716636 -0.21112829 0.91855925 2.3418052e-38
-2.8751128 -0.2148301 0.92238271 2.3418052e-38
-2.8780019 -0.21545756 0.92550403 2.3418052e-38
-2.8821924 -0.20883876 0.92549175 2.3418052e-38
-2.8868892 -0.21273716 0.92853546 2.3418052e-38
-2.8950343 -0.20961764 0.93660671 2.3418052e-38
-2.9006491 -0.20113704 0.93396252 2.3418052e-38
-2.9044163 -0.20514798 0.93685311 2.3418052e-38
-2.9068549 -0.20408793 0.93808317 2.3418052e-38
-2.9154277 -0.20303947 0.94355398 2.3418052e-38
-2.9214401 -0.20437819 0.94908983 2.3418052e-38
-2.9229243 -0.20544161 0.9493466 2.3418052e-38
-2.9278157 -0.19888391 0.95077038 2.3418052e-38
-2.9358714 -0.19556834 0.95583391 2.3418052e-38
-2.9349136 -0.19796623 0.95389801 2.3418052e-38
-2.9401913 -0.19990212 0.96011961 2.3418052e-38
-2.94349 -0.19943626 0.96212822 2.3418052e-38
-2.9461918 -0.19779798 0.9620434 2.3418052e-38
-2.9475296 -0.19822307 0.96408433 2.3418052e-38
-2.9558575 -0.19340594 0.97085851 2.3418052e-38
-2.9596999 -0.18873735 0.97542852 2.3418052e-38
-2.964108 -0.19664824 0.98031539 2.3418052e-38
-2.9703946 -0.19629312 0.98860651 2.3418052e-38
-2.9689279 -0.19481678 0.98636979 2.3418052e-38
-2.9700322 -0.20176713 0.99178714 2.3418052e-38
-2.9690483 -0.20012598 0.99103326 2.3418052e-38
-2.9677229 -0.20266667 0.99097449 2.3418052e-38
-2.9682946 -0.19772211 0.99141228 2.3418052e-38
-2.97053 -0.20473206 0.99805087 2.3418052e-38
-2.9692919 -0.20722449 0.99795395 2.3418052e-38
-2.9713404 -0.20593065 1.0006549 2.3418052e-38
-2.9714336 -0.21193407 1.0036446 2.3418052e-38
-2.9666395 -0.21102041 0.99639654 2.3418052e-38
-2.9692035 -0.21330437 1.001768 2.3418052e-38
-2.9744925 -0.21234091 1.0097597 2.3418052e-38
-2.976449 -0.21128581 1.0124332 2.3418052e-38
-2.9754164 -0.22060469 1.0141219 2.3418052e-38
-2.9776409 -0.22238952 1.0168558 2.3418052e-38
-2.9808071 -0.22478418 1.0197562 2.3418052e-38
-2.9845245 -0.2250648 1.0257878 2.3418052e-38
-2.9906018 -0.23019062 1.0327573 2.3418052e-38
-2.9943063 -0.23320042 1.0375504 2.3418052e-38
-2.9985867 -0.22976501 1.0375667 2.3418052e-38
-3.004091 -0.23338497 1.0439494 2.3418052e-38
-3.005671 -0.23680505 1.0444218 2.3418052e-38
-3.0127416 -0.23653753 1.0496876 2.3418052e-38
-3.0177855 -0.23936771 1.0548565 2.3418052e-38
-3.0203419 -0.23716643 1.0538536 2.3418052e-38
-3.0217268 -0.23325758 1.0500499 2.3418052e-38
-3.0267515 -0.24079174 1.0585299 2.3418052e-38
-3.028471 -0.24203187 1.0585356 2.3418052e-38
-3.0313985 -0.24657404 1.0627494 2.3418052e-38
-3.0368521 -0.25883424 1.0727292 2.3418052e-38
-3.03793 -0.26305884 1.0740834 2.3418052e-38
-3.0402112 -0.26176411 1.0742761 2.3418052e-38
-3.0407894 -0.25989911 1.0728263 2.3418052e-38
-3.0498335 -0.26567721 1.085063 2.3418052e-38
-3.0513651 -0.26434889 1.0857773 2.3418052e-38
-3.0523918 -0.26059663 1.0826867 2.3418052e-38
-3.0584569 -0.26941857 1.0928838 2.3418052e-38
-3.0609171 -0.2700043 1.0967478 2.3418052e-38
-3.0620091 -0.2677092 1.0937146 2.3418052e-38
-3.065968 -0.2706975 1.098779 2.3418052e-38
-3.0721149 -0.27585021 1.1081849 2.3418052e-38
-3.074398 -0.27726626 1.1102897 2.3418052e-38
-3.0801413 -0.28287944 1.1197126 2.3418052e-38
-3.0848 -0.28303653 1.1237637 2.3418052e-38
-3.0882695 -0.28527674 1.1284721 2.3418052e-38
-3.0903246 -0.28830788 1.1308591 2.3418052e-38
-3.0909214 -0.28428984 1.1279461 2.3418052e-38
-3.0951688 -0.28524375 1.1319262 2.3418052e-38
-3.0987394 -0.28690556 1.1392196 2.3418052e-38
-3.0998762 -0.2855587 1.1386245 2.3418052e-38
-3.1047125 -0.28711966 1.1464082 2.3418052e-38
-3.106849 -0.28928244 1.1507522 2.3418052e-38
-3.1064291 -0.29271218 1.1528202 2.3418052e-38
-3.1074128 -0.29126519 1.1549308 2.3418052e-38
-3.1082859 -0.28946486 1.1572938 2.3418052e-38
-3.1081209 -0.29295588 1.1600358 2.3418052e-38
-3.1094956 -0.29364443 1.1636531 2.3418052e-38
-3.1101646 -0.2909053 1.16461 2.3418052e-38
-3.1100678 -0.2925297 1.1693571 2.3418052e-38
-3.1123407 -0.2957857 1.1754895 2.3418052e-38
-3.1147435 -0.29646513 1.1813341 2.3418052e-38
-3.1151409 -0.29614285 1.1864651 2.3418052e-38
-3.1145627 -0.30430776 1.1932534 2.3418052e-38
-3.1179731 -0.30302379 1.2004031 2.3418052e-38
-3.1206002 -0.30887771 1.2088025 2.3418052e-38
-3.119894 -0.30670461 1.2126653 2.3418052e-38
-3.1205773 -0.30778858 1.2170831 2.3418052e-38
-3.1232464 -0.3068718 1.2258608 2.3418052e-38
-3.1240103 -0.30955631 1.2326006 2.3418052e-38
-3.1227856 -0.30846447 1.2359086 2.3418052e-38
-3.1227381 -0.3077876 1.2408166 2.3418052e-38
-3.1255112 -0.3087126 1.2502282 2.3418052e-38
-3.1279824 -0.30989733 1.2584628 2.3418052e-38
-3.128763 -0.30832985 1.2625456 2.3418052e-38
-3.1302996 -0.30976883 1.2686266 2.3418052e-38
-3.1359293 -0.31165221 1.2797527 2.3418052e-38
-3.1345379 -0.30867043 1.2771086 2.3418052e-38
-3.1351027 -0.3137722 1.286606 2.3418052e-38
-3.140373 -0.31933311 1.2958322 2.3418052e-38
-3.1428766 -0.31812459 1.2994021 2.3418052e-38
-3.1403174 -0.31933695 1.2993015 2.3418052e-38
-3.1413667 -0.32427809 1.3044237 2.3418052e-38
-3.145134 -0.32680205 1.3127451 2.3418052e-38
-3.145159 -0.32903892 1.3168899 2.3418052e-38
-3.1449232 -0.32860783 1.3197137 2.3418052e-38
-3.1478827 -0.32879493 1.3257155 2.3418052e-38
-3.1472821 -0.33191696 1.3296448 2.3418052e-38
-3.1500638 -0.33394343 1.3388451 2.3418052e-38
-3.1504006 -0.33694923 1.3441806 2.3418052e-38
-3.1520073 -0.33860993 1.3494266 2.3418052e-38
-3.1511352 -0.33990267 1.3529812 2.3418052e-38
-3.1539705 -0.33536181 1.3582203 2.3418052e-38
-3.1525607 -0.3414869 1.3633791 2.3418052e-38
-3.1535525 -0.34109312 1.367053 2.3418052e-38
-3.150867 -0.34009814 1.3672372 2.3418052e-38
-3.1527336 -0.34241363 1.3748605 2.3418052e-38
-3.1520145 -0.34368724 1.376044 2.3418052e-38
-3.1499853 -0.34499526 1.3781478 2.3418052e-38
-3.1522233 -0.34550363 1.3832116 2.3418052e-38
-3.1547253 -0.34577638 1.3877144 2.3418052e-38
-3.1542284 -0.34568974 1.388945 2.3418052e-38
-3.1492307 -0.34740067 1.3831774 2.3418052e-38
-3.156383 -0.35574916 1.3971605 2.3418052e-38
-3.1587837 -0.36027566 1.4021441 2.3418052e-38
-3.1566849 -0.35399097 1.4010695 2.3418052e-38
-3.156301 -0.358044 1.4004978 2.3418052e-38
-3.1599684 -0.35841903 1.407813 2.3418052e-38
-3.1551018 -0.35794893 1.4011117 2.3418052e-38
-3.1550272 -0.3589963 1.3981271 2.3418052e-38
-3.1555326 -0.3626774 1.401047 2.3418052e-38
-3.1586525 -0.35573512 1.4028791 2.3418052e-38
-3.1589093 -0.35459107 1.4008853 2.3418052e-38
-3.1619942 -0.35462931 1.4070688 2.3418052e-38
-3.1647644 -0.35248902 1.4111314 2.3418052e-38
-3.1644418 -0.35419092 1.4114887 2.3418052e-38
-3.1673467 -0.35220054 1.4161955 2.3418052e-38
-3.1707714 -0.35243642 1.4221705 2.3418052e-38
-3.1756704 -0.3572678 1.4307142 2.3418052e-38
-3.1774979 -0.3586832 1.4331585 2.3418052e-38
-3.179153 -0.35863939 1.4333953 2.3418052e-38
-3.18367 -0.35484904 1.438737 2.3418052e-38
-3.1900623 -0.34696445 1.4420714 2.3418052e-38
-3.1945484 -0.34900656 1.4485643 2.3418052e-38
-3.1953857 -0.3413884 1.4432966 2.3418052e-38
-3.1991127 -0.34905201 1.450992 2.3418052e-38
-3.2034459 -0.34676525 1.4554232 2.3418052e-38
-3.2082028 -0.35127702 1.4649471 2.3418052e-38
-3.2107399 -0.35813332 1.4712605 2.3418052e-38
-3.214231 -0.36177158 1.4768513 2.3418052e-38
-3.2166476 -0.3609716 1.4811399 2.3418052e-38
-3.2221503 -0.36229011 1.4890554 2.3418052e-38
-3.2198381 -0.36812282 1.4907911 2.3418052e-38
-3.2258475 -0.36533105 1.499743 2.3418052e-38
-3.2270997 -0.37168345 1.5070231 2.3418052e-38
-3.2307515 -0.37196764 1.5123636 2.3418052e-38
-3.2287631 -0.38339832 1.5180531 2.3418052e-38
-3.2288828 -0.38447508 1.5208691 2.3418052e-38
-3.2346671 -0.38562909 1.5330462 2.3418052e-38
-3.235136 -0.38995358 1.5377429 2.3418052e-38
-3.2385962 -0.38917196 1.5438349 2.3418052e-38
-3.2388544 -0.39209262 1.5467182 2.3418052e-38
-3.2408435 -0.38929245 1.5466965 2.3418052e-38
-3.241996 -0.39161357 1.551138 2.3418052e-38
-3.2438052 -0.3928456 1.5562774 2.3418052e-38
-3.2458899 -0.39349529 1.5600671 2.3418052e-38
-3.245482 -0.39892855 1.5642692 2.3418052e-38
-3.2440023 -0.40419182 1.5670394 2.3418052e-38
-3.2504888 -0.3970848 1.5722702 2.3418052e-38
-3.2501767 -0.40579554 1.5774106 2.3418052e-38
-3.2480514 -0.41170666 1.5807106 2.3418052e-38
-3.2560246 -0.40979713 1.5924162 2.3418052e-38
-3.2585275 -0.40896007 1.5954213 2.3418052e-38
-3.2658639 -0.41323665 1.6099426 2.3418052e-38
-3.2682199 -0.41769597 1.6164609 2.3418052e-38
-3.2700725 -0.42054111 1.6158742 2.3418052e-38
-3.2729661 -0.42718706 1.6265287 2.3418052e-38
-3.2760036 -0.42874292 1.6316634 2.3418052e-38
-3.2794974 -0.42713615 1.6356566 2.3418052e-38
-3.2810774 -0.43009719 1.6356565 2.3418052e-38
-3.2855945 -0.43208641 1.6431525 2.3418052e-38
-3.2868726 -0.42778793 1.6438224 2.3418052e-38
-3.2899792 -0.42823246 1.6441056 2.3418052e-38
-3.2951806 -0.42714766 1.653936 2.3418052e-38
-3.2954495 -0.43271336 1.6579082 2.3418052e-38
-3.3000896 -0.42895663 1.6605115 2.3418052e-38
-3.30299 -0.42985249 1.6713315 2.3418052e-38
-3.3060811 -0.42556739 1.677228 2.3418052e-38
-3.3094699 -0.42888284 1.6830304 2.3418052e-38
-3.3108907 -0.42823514 1.6896079 2.3418052e-38
-3.3113015 -0.43144986 1.6923376 2.3418052e-38
-3.3106935 -0.43024233 1.692351 2.3418052e-38
-3.3091652 -0.42922151 1.6952114 2.3418052e-38
-3.3071184 -0.42624506 1.6931907 2.3418052e-38
-3.3086667 -0.43033406 1.7013831 2.3418052e-38
-3.3087552 -0.43301442 1.709443 2.3418052e-38
-3.3071175 -0.43127793 1.7081331 2.3418052e-38
-3.3044739 -0.43510535 1.7134079 2.3418052e-38
-3.3055809 -0.42894691 1.7134221 2.3418052e-38
-3.3078337 -0.42970479 1.7245519 2.3418052e-38
-3.3064742 -0.42836449 1.7271167 2.3418052e-38
-3.304028 -0.42873442 1.7286804 2.3418052e-38
-3.3024659 -0.42402202 1.7283976 2.3418052e-38
-3.2981937 -0.43044928 1.7332098 2.3418052e-38
-3.2935684 -0.43555737 1.7356532 2.3418052e-38
-3.2917607 -0.4348039 1.7412453 2.3418052e-38
-3.2895665 -0.43522322 1.7424129 2.3418052e-38
-3.2882426 -0.43507341 1.7452848 2.3418052e-38
-3.2852998 -0.43089589 1.7354331 2.3418052e-38
-3.2871892 -0.43317783 1.7534288 2.3418052e-38
-3.2799704 -0.44237065 1.7573409 2.3418052e-38
-3.2816615 -0.44193193 1.7658283 2.3418052e-38
-3.2809064 -0.439832 1.7696812 2.3418052e-38
-3.2757587 -0.44607487 1.7667235 2.3418052e-38
-3.2752795 -0.45484483 1.7717937 2.3418052e-38
-3.2725739 -0.45989773 1.7744198 2.3418052e-38
-3.2702429 -0.45803216 1.7779852 2.3418052e-38
-3.2685676 -0.4601008 1.7726588 2.3418052e-38
-3.2617364 -0.46567568 1.7673787 2.3418052e-38
-3.2620978 -0.46861902 1.7706677 2.3418052e-38
-3.2598336 -0.47205856 1.774374 2.3418052e-38
-3.2591395 -0.46966949 1.7757097 2.3418052e-38
-3.2581096 -0.46703273 1.7736839 2.3418052e-38
-3.2570381 -0.47666439 1.7773119 2.3418052e-38
-3.2542837 -0.4805913 1.7766129 2.3418052e-38
-3.2564144 -0.47796616 1.7862575 2.3418052e-38
-3.2552691 -0.47703117 1.7838799 2.3418052e-38
-3.2574706 -0.46902838 1.7785639 2.3418052e-38
-3.2545784 -0.47699985 1.7816327 2.3418052e-38
-3.2555709 -0.46983263 1.7843128 2.3418052e-38
-3.253612 -0.47612059 1.7753335 2.3418052e-38
-3.2536726 -0.4766736 1.7948232 2.3418052e-38
-3.2572012 -0.47500286 1.8024886 2.3418052e-38
-3.2564554 -0.4811385 1.8055986 2.3418052e-38
-3.25596 -0.47658148 1.8037567 2.3418052e-38
-3.25687 -0.48642111 1.8086343 2.3418052e-38
-3.25529 -0.48205572 1.8036996 2.3418052e-38
-3.2512047 -0.48282233 1.7972889 2.3418052e-38
-3.2496078 -0.48213792 1.8045198 2.3418052e-38
-3.2499027 -0.47984594 1.803196 2.3418052e-38
-3.2511697 -0.4914932 1.8106147 2.3418052e-38
-3.246676 -0.49609122 1.8049623 2.3418052e-38
-3.2538965 -0.48917335 1.8175818 2.3418052e-38
-3.2511549 -0.49341908 1.822265 2.3418052e-38
-3.2452002 -0.50267476 1.8141609 2.3418052e-38
-3.2525241 -0.49244109 1.8242885 2.3418052e-38
-3.2515428 -0.49457386 1.8232131 2.3418052e-38
-3.2500317 -0.50044924 1.8230057 2.3418052e-38
-3.2497983 -0.49801314 1.8224692 2.3418052e-38
-3.2475457 -0.5003534 1.8200653 2.3418052e-38
-3.248018 -0.50088179 1.8210547 2.3418052e-38
-3.24529 -0.50597078 1.8123889 2.3418052e-38
-3.2442305 -0.50517583 1.8122636 2.3418052e-38
-3.2411349 -0.50695574 1.8101336 2.3418052e-38
-3.2351925 -0.51300442 1.7985971 2.3418052e-38
-3.2440112 -0.50761467 1.804987 2.3418052e-38
-3.244982 -0.5046913 1.8060528 2.3418052e-38
-3.2459219 -0.5058192 1.8094308 2.3418052e-38
-3.2431839 -0.50084305 1.8004649 2.3418052e-38
-3.2435706 -0.51653343 1.8149927 2.3418052e-38
-3.241164 -0.51273805 1.8126603 2.3418052e-38
-3.243103 -0.51135921 1.8163005 2.3418052e-38
-3.2441275 -0.50367206 1.8081206 2.3418052e-38
-3.246099 -0.49988434 1.8103372 2.3418052e-38
-3.2475567 -0.5027653 1.8148648 2.3418052e-38
-3.2471333 -0.50323302 1.8140514 2.3418052e-38
0 0 0 2.3418052e-38
-0.011316022 0.012417616 -0.0090567693 2.3418052e-38
-0.0048869648 -0.00072655774 -0.012111797 2.3418052e-38
0.0055874293 -0.011282357 -0.013186298 2.3418052e-38
0.0010081246 -0.020407474 -0.015045382 2.3418052e-38
-0.013290314 -0.021166386 -0.019037116 2.3418052e-38
-0.025054168 -0.01807344 -0.023234356 2.3418052e-38
-0.039195821 -0.011579762 -0.025573041 2.3418052e-38
-0.049877696 -0.012505959 -0.027517837 2.3418052e-38
-0.066810362 -0.0077172187 -0.027261572 2.3418052e-38
-0.082568459 -0.0082764607 -0.023858601 2.3418052e-38
-0.096512809 -0.00026742177 -0.024512442 2.3418052e-38
-0.12019471 0.0086292466 -0.022538295 2.3418052e-38
-0.13710794 0.0016313661 -0.014694042 2.3418052e-38
-0.1373539 -0.0083190743 -0.01055388 2.3418052e-38
-0.15634818 -0.0047943788 -0.0032219922 2.3418052e-38
-0.18023588 0.00061966956 0.0028809707 2.3418052e-38
-0.18970732 0.0072394819 0.0043390025 2.3418052e-38
-0.20318812 0.0044031097 0.0072070002 2.3418052e-38
-0.21501927 0.0088667152 0.0091326116 2.3418052e-38
-0.22426595 0.0088172853 0.013106837 2.3418052e-38
-0.23726411 0.0052727358 0.018722769 2.3418052e-38
-0.24427326 -0.0052143447 0.021037446 2.3418052e-38
-0.25866666 -0.0024774554 0.024503302 2.3418052e-38
-0.26936996 -0.0082232235 0.028030168 2.3418052e-38
-0.28280622 -0.009227979 0.034867387 2.3418052e-38
-0.29569674 -0.0076803616 0.039637569 2.3418052e-38
-0.30805552 0.0031518089 0.043353673 2.3418052e-38
-0.3177163 0.0092443591 0.04756476 2.3418052e-38
-0.33012727 0.017955048 0.054374911 2.3418052e-38
-0.34435409 0.01302806 0.061584245 2.3418052e-38
-0.35675558 0.014720779 0.064682946 2.3418052e-38
-0.37062684 0.011658433 0.068259455 2.3418052e-38
-0.38020781 0.025104867 0.071230538 2.3418052e-38
-0.39166805 0.02413531 0.072870024 2.3418052e-38
-0.40193379 0.028446894 0.072880395 2.3418052e-38
-0.4111985 0.035433736 0.071477741 2.3418052e-38
-0.42604998 0.034420136 0.067861237 2.3418052e-38
-0.43633294 0.040554624 0.065129012 2.3418052e-38
-0.44951284 0.028847791 0.061666548 2.3418052e-38
-0.46572927 0.034721915 0.054635081 2.3418052e-38
-0.48160663 0.040455405 0.050739355 2.3418052e-38
-0.49195156 0.044603806 0.045604754 2.3418052e-38
-0.50483501 0.042281672 0.040284298 2.3418052e-38
-0.51713043 0.040759131 0.035750657 2.3418052e-38
-0.52730745 0.036353372 0.031996336 2.3418052e-38
-0.54478592 0.037055448 0.029719794 2.3418052e-38
-0.56258959 0.037839729 0.026088208 2.3418052e-38
-0.5774793 0.035380654 0.021518014 2.3418052e-38
-0.58713758 0.038357861 0.019342355 2.3418052e-38
-0.59654427 0.027775211 0.014913375 2.3418052e-38
-0.60973251 0.02892952 0.010996588 2.3418052e-38
-0.62555319 0.021573666 0.0064689103 2.3418052e-38
-0.64083064 0.022907533 0.0048766769 2.3418052e-38
-0.65575796 0.018466795 0.0010769034 2.3418052e-38
-0.67111778 0.019432515 -0.00040072246 2.3418052e-38
-0.68506682 0.012297624 -0.00040406582 2.3418052e-38
-0.69765449 0.017359788 -0.00015978851 2.3418052e-38
-0.70664972 0.021787694 0.0010703936 2.3418052e-38
-0.71658099 0.026026834 0.0019841767 2.3418052e-38
-0.72608149 0.026419215 0.0055562542 2.3418052e-38
-0.73766947 0.021609176 0.0095341066 2.3418052e-38
-0.74806839 0.022314798 0.013730175 2.3418052e-38
-0.7653439 0.030964764 0.020373963 2.3418052e-38
-0.77676332 0.035865184 0.024685437 2.3418052e-38
-0.78657061 0.036137458 0.028634351 2.3418052e-38
-0.79480577 0.042130444 0.032976445 2.3418052e-38
-0.81043202 0.050056409 0.038263425 2.3418052e-38
-0.82661897 0.052765686 0.042687591 2.3418052e-38
-0.83987582 0.054533221 0.045548741 2.3418052e-38
-0.84405398 0.045520261 0.047862139 2.3418052e-38
-0.85746723 0.044314325 0.050777692 2.3418052e-38
-0.87869084 0.042765513 0.057676282 2.3418052e-38
-0.88823664 0.03766891 0.06030374 2.3418052e-38
-0.90292758 0.038240448 0.065657258 2.3418052e-38
-0.91444367 0.038843933 0.070875891 2.3418052e-38
-0.9251346 0.034666624 0.075680606 2.3418052e-38
-0.94020826 0.035168115 0.082668528 2.3418052e-38
-0.95037657 0.034058593 0.08784344 2.3418052e-38
-0.96276408 0.031683825 0.093956485 2.3418052e-38
-0.97678655 0.030054895 0.10186899 2.3418052e-38
-0.98565114 0.028042288 0.10727479 2.3418052e-38
-0.99652034 0.025210457 0.11325412 2.3418052e-38
-1.0102504 0.0274611 0.11971997 2.3418052e-38
-1.0196733 0.029401705 0.12312236 2.3418052e-38
-1.0301206 0.028177513 0.12653455 2.3418052e-38
-1.0398849 0.025359515 0.1286017 2.3418052e-38
-1.0500276 0.027476322 0.13069437 2.3418052e-38
-1.0603049 0.031201391 0.13335241 2.3418052e-38
-1.0729955 0.030377457 0.13727152 2.3418052e-38
-1.0852902 0.031541511 0.14077663 2.3418052e-38
-1.0991675 0.028455378 0.14293799 2.3418052e-38
-1.1112446 0.030510547 0.14392933 2.3418052e-38
-1.12198 0.032999773 0.14554408 2.3418052e-38
-1.1364045 0.029746071 0.14809632 2.3418052e-38
-1.1504961 0.030218929 0.14987302 2.3418052e-38
-1.1668563 0.02872837 0.15085851 2.3418052e-38
-1.1836853 0.027480174 0.15178755 2.3418052e-38
-1.1964111 0.026679473 0.15340745 2.3418052e-38
-1.2144564 0.025530873 0.15733707 2.3418052e-38
-1.2282408 0.026475759 0.1587259 2.3418052e-38
-1.2615664 0.024784263 0.16143852 2.3418052e-38
-1.2824154 0.027238552 0.16303235 2.3418052e-38
-1.3016632 0.027527854 0.16344851 2.3418052e-38
-1.324941 0.029550748 0.16148528 2.3418052e-38
-1.3385983 0.032461073 0.15991099 2.3418052e-38
-1.3526024 0.033162203 0.15824941 2.3418052e-38
-1.3650037 0.033290576 0.15645915 2.3418052e-38
-1.3781201 0.034511603 0.15468825 2.3418052e-38
-1.3922728 0.033906769 0.15389884 2.3418052e-38
-1.4070493 0.035601892 0.1547617 2.3418052e-38
-1.4205303 0.036265712 0.15463699 2.3418052e-38
-1.4312366 0.039361306 0.15315171 2.3418052e-38
-1.4491172 0.039233945 0.1543612 2.3418052e-38
-1.4638547 0.04141289 0.15457621 2.3418052e-38
-1.4786632 0.041083958 0.15717188 2.3418052e-38
-1.4888664 0.043194875 0.15876219 2.3418052e-38
-1.4993358 0.044500291 0.16176435 2.3418052e-38
-1.5127422 0.046062503 0.16660796 2.3418052e-38
-1.5251384 0.049219813 0.17167224 2.3418052e-38
-1.5392329 0.051601075 0.17783073 2.3418052e-38
-1.5603369 0.058019843 0.18368678 2.3418052e-38
-1.5705985 0.057883102 0.18765312 2.3418052e-38
-1.5899203 0.05962437 0.1930213 2.3418052e-38
-1.6070626 0.061129164 0.19946316 2.3418052e-38
-1.6173116 0.056228969 0.20383528 2.3418052e-38
-1.6278837 0.05297194 0.20797582 2.3418052e-38
-1.6445884 0.056078035 0.21062915 2.3418052e-38
-1.660558 0.056532137 0.21369746 2.3418052e-38
-1.6764801 0.052712005 0.21755603 2.3418052e-38
-1.6925347 0.057805929 0.22078063 2.3418052e-38
-1.7075032 0.059816346 0.22602832 2.3418052e-38
-1.7215174 0.05636555 0.23157354 2.3418052e-38
-1.7341508 0.056749146 0.23660445 2.3418052e-38
-1.747297 0.054211643 0.24336037 2.3418052e-38
-1.7576308 0.053225309 0.24813001 2.3418052e-38
-1.7666792 0.050278734 0.25274572 2.3418052e-38
-1.7779138 0.052195281 0.25798497 2.3418052e-38
-1.7887619 0.048203919 0.26581705 2.3418052e-38
-1.8003074 0.047016911 0.27394459 2.3418052e-38
-1.8084888 0.04584758 0.28013176 2.3418052e-38
-1.8278742 0.042444922 0.29289019 2.3418052e-38
-1.8367068 0.045545094 0.29883555 2.3418052e-38
-1.8491983 0.043449171 0.30617794 2.3418052e-38
-1.8615099 0.04309465 0.31240228 2.3418052e-38
-1.8751832 0.040869445 0.31717977 2.3418052e-38
-1.8902196 0.03681118 0.32055628 2.3418052e-38
-1.9078943 0.03659039 0.32405767 2.3418052e-38
-1.9244735 0.03179979 0.32702625 2.3418052e-38
-1.9429637 0.030995388 0.33045042 2.3418052e-38
-1.9598123 0.029949544 0.33266422 2.3418052e-38
-1.9858466 0.028145891 0.33617282 2.3418052e-38
-1.9997225 0.027920756 0.33662871 2.3418052e-38
-2.015343 0.026726374 0.339232 2.3418052e-38
-2.0311151 0.024694227 0.34214315 2.3418052e-38
-2.0431287 0.023555035 0.34430403 2.3418052e-38
-2.0558274 0.019144932 0.34642902 2.3418052e-38
-2.0669861 0.019449558 0.34742159 2.3418052e-38
-2.0800564 0.015599255 0.3497487 2.3418052e-38
-2.0918052 0.015250563 0.35143697 2.3418052e-38
-2.1029468 0.014692481 0.35299313 2.3418052e-38
-2.1134942 0.014086615 0.35569954 2.3418052e-38
-2.1232538 0.014941476 0.35857746 2.3418052e-38
-2.1334069 0.011754759 0.36200586 2.3418052e-38
-2.1440222 0.010776238 0.36636445 2.3418052e-38
-2.1552157 0.011561086 0.37362596 2.3418052e-38
-2.1649072 0.0088276593 0.38121864 2.3418052e-38
-2.1755714 0.0088176038 0.38935849 2.3418052e-38
-2.1852329 0.01061034 0.39924109 2.3418052e-38
-2.1903172 0.0051993965 0.40761301 2.3418052e-38
-2.2005298 0.0056496221 0.41986778 2.3418052e-38
-2.2093678 0.0048444071 0.42990181 2.3418052e-38
-2.2191925 0.0048257187 0.4402597 2.3418052e-38
-2.2293653 8.8589928e-05 0.45024827 2.3418052e-38
-2.2436659 -0.0016058296 0.46127087 2.3418052e-38
-2.255053 -0.0055839689 0.47031865 2.3418052e-38
-2.2638614 -0.0077624433 0.47639993 2.3418052e-38
-2.2762163 -0.012705238 0.48365247 2.3418052e-38
-2.2874365 -0.01267459 0.48912904 2.3418052e-38
-2.2995369 -0.014949532 0.49472162 2.3418052e-38
-2.3115039 -0.019663634 0.50057036 2.3418052e-38
-2.3214273 -0.02049526 0.5039137 2.3418052e-38
-2.3363533 -0.021480812 0.51031572 2.3418052e-38
-2.3456113 -0.024388338 0.51422423 2.3418052e-38
-2.3603792 -0.027413961 0.5209552 2.3418052e-38
-2.372947 -0.026367618 0.5253334 2.3418052e-38
-2.3817151 -0.031663161 0.5279417 2.3418052e-38
-2.3921914 -0.029477868 0.53334039 2.3418052e-38
-2.4016411 -0.032892894 0.5398097 2.3418052e-38
-2.4113107 -0.034564566 0.54645586 2.3418052e-38
-2.4199307 -0.037772484 0.55255562 2.3418052e-38
-2.4307714 -0.041234408 0.56018996 2.3418052e-38
-2.4488456 -0.043647658 0.57045496 2.3418052e-38
-2.4613395 -0.042032957 0.57571018 2.3418052e-38
-2.4771156 -0.045257378 0.58454049 2.3418052e-38
-2.4889677 -0.046315808 0.59259421 2.3418052e-38
-2.4994845 -0.046702027 0.59698611 2.3418052e-38
-2.5109048 -0.049201638 0.60213089 2.3418052e-38
-2.5237179 -0.054717518 0.61046326 2.3418052e-38
-2.5350885 -0.060441706 0.6163854 2.3418052e-38
-2.5456917 -0.065886721 0.61967427 2.3418052e-38
-2.5581915 -0.069187514 0.62470675 2.3418052e-38
-2.5716474 -0.069141515 0.62752974 2.3418052e-38
-2.5818794 -0.067128606 0.62986755 2.3418052e-38
-2.5954545 -0.065422907 0.63275099 2.3418052e-38
-2.6077805 -0.070071496 0.64052325 2.3418052e-38
-2.6182904 -0.074207351 0.64648694 2.3418052e-38
-2.6367667 -0.077192239 0.65631866 2.3418052e-38
-2.6455574 -0.085272588 0.66396976 2.3418052e-38
-2.657346 -0.087159544 0.67069298 2.3418052e-38
-2.6650383 -0.089095436 0.67792016 2.3418052e-38
-2.6708844 -0.094657347 0.68553978 2.3418052e-38
-2.6765711 -0.1021975 0.69536555 2.3418052e-38
-2.6833277 -0.10527956 0.70298946 2.3418052e-38
-2.6911125 -0.1089896 0.71400744 2.3418052e-38
-2.7017055 -0.11092363 0.72765255 2.3418052e-38
-2.7082024 -0.1166946 0.7376883 2.3418052e-38
-2.7165887 -0.12218369 0.74741471 2.3418052e-38
-2.7304096 -0.12468851 0.76186991 2.3418052e-38
-2.7410595 -0.13113821 0.77117658 2.3418052e-38
-2.7569928 -0.13374567 0.78036201 2.3418052e-38
-2.7657292 -0.1351923 0.78630364 2.3418052e-38
-2.7767768 -0.13785724 0.7945779 2.3418052e-38
-2.7880182 -0.14024191 0.80186754 2.3418052e-38
-2.7973919 -0.14334807 0.80974472 2.3418052e-38
-2.8049269 -0.14714184 0.81512737 2.3418052e-38
-2.8146892 -0.15187103 0.82421029 2.3418052e-38
-2.8239124 -0.15374069 0.8308717 2.3418052e-38
-2.8317878 -0.15623297 0.83968365 2.3418052e-38
-2.8394792 -0.15780056 0.84842771 2.3418052e-38
-2.8449774 -0.16143461 0.86039621 2.3418052e-38
-2.8464215 -0.16716601 0.87017596 2.3418052e-38
-2.8533623 -0.174762 0.88570541 2.3418052e-38
-2.8590693 -0.1860899 0.89680636 2.3418052e-38
-2.867171 -0.19784792 0.90887952 2.3418052e-38
-2.8716636 -0.21112829 0.91855925 2.3418052e-38
-2.8780019 -0.21545756 0.92550403 2.3418052e-38
-2.8868892 -0.21273716 0.92853546 2.3418052e-38
-2.8950343 -0.20961764 0.93660671 2.3418052e-38
-2.9006491 -0.20113704 0.93396252 2.3418052e-38
-2.9154277 -0.20303947 0.94355398 2.3418052e-38
-2.9278157 -0.19888391 0.95077038 2.3418052e-38
-2.9358714 -0.19556834 0.95583391 2.3418052e-38
-2.94349 -0.19943626 0.96212822 2.3418052e-38
-2.9558575 -0.19340594 0.97085851 2.3418052e-38
-2.964108 -0.19664824 0.98031539 2.3418052e-38
-2.9703946 -0.19629312 0.98860651 2.3418052e-38
-2.97053 -0.20473206 0.99805087 2.3418052e-38
-2.9744925 -0.21234091 1.0097597 2.3418052e-38
-2.9776409 -0.22238952 1.0168558 2.3418052e-38
-2.9845245 -0.2250648 1.0257878 2.3418052e-38
-2.9906018 -0.23019062 1.0327573 2.3418052e-38
-3.004091 -0.23338497 1.0439494 2.3418052e-38
-3.0127416 -0.23653753 1.0496876 2.3418052e-38
-3.0267515 -0.24079174 1.0585299 2.3418052e-38
-3.0368521 -0.25883424 1.0727292 2.3418052e-38
-3.0498335 -0.26567721 1.085063 2.3418052e-38
