# .PCD v0.7 - Point Cloud Data file format
VERSION 0.7
FIELDS x y z rgb
SIZE 4 4 4 4
TYPE F F F F
COUNT 1 1 1 1
WIDTH 1045
HEIGHT 1
VIEWPOINT 0 0 0 1 0 0 0
POINTS 1045
DATA ascii
-1.3944839 0.31750131 3.1393673 1.2909189e-38
0.32242855 0.31920242 3.122514 1.8345839e-38
-2.1969972 0.32930052 3.1213799 0
-2.1669693 0.32607466 3.1262927 0
-2.1508636 0.32727405 3.1292608 0
-2.1258945 0.33004388 3.133966 0
-2.0939934 0.32604718 3.1391203 0
-1.4555286 0.32662547 3.1328018 2.0285204e-38
-1.4395181 0.32494891 3.1337254 2.0191922e-38
-1.3170612 0.33086014 3.1284404 1.4475415e-38
0.28155896 0.32348216 3.1201563 1.8531678e-38
0.31320983 0.33044785 3.123086 1.8162171e-38
-2.112355 0.3492592 3.1385307 0
-2.0053582 0.35969716 3.1299241 0
-1.4417249 0.35739779 3.1370571 2.0099726e-38
-1.4379531 0.34089392 3.1355453 2.0100086e-38
-1.3667135 0.34847659 3.1205394 1.4292471e-38
-1.3493774 0.35403568 3.1245677 1.4384311e-38
-1.3220745 0.34602159 3.1290936 1.4383587e-38
0.29477251 0.35293883 3.1242294 1.8346918e-38
0.31146854 0.34776372 3.124825 1.8069976e-38
-2.0489144 0.36727965 3.1231279 0
-2.0276332 0.36886448 3.1270499 0
-1.9893974 0.3608858 3.1328654 0
-1.9734367 0.36207443 3.1358068 0
-1.9584695 0.37401521 3.1397958 1.1901498e-38
-1.4396383 0.37865782 3.1394835 2.0007528e-38
0.29627058 0.36820215 3.1259713 1.8162168e-38
0.3115966 0.36659724 3.1268556 1.7978138e-38
0.33278048 0.372089 3.1289053 1.7608997e-38
0.34835625 0.37302801 3.13008 1.7332769e-38
-1.9043453 0.38831648 3.1223316 1.2267411e-38
-1.8878145 0.39133561 3.1255813 1.2084813e-38
-1.8648045 0.39126116 3.1296186 1.2360331e-38
-1.8494806 0.39776647 3.1330526 1.1993338e-38
-1.8336642 0.39894432 3.1359673 1.2085534e-38
-1.806319 0.39025259 3.139787 1.2636196e-38
0.29315931 0.38908815 3.1279993 1.8070334e-38
0.31359404 0.38694829 3.1291783 1.7609361e-38
-1.8125758 0.40051478 3.1398537 1.2177013e-38
-1.7664387 0.41232622 3.1217239 1.2912778e-38
-1.7474406 0.41551328 3.1254265 1.2912789e-38
-1.7281173 0.41518009 3.1287861 1.3097174e-38
-1.7051475 0.41334611 3.132616 1.2820588e-38
-1.6888199 0.40747297 3.1348195 1.2820586e-38
-1.6680799 0.41078979 3.1388431 1.2912779e-38
0.29976606 0.4038164 3.1300359 1.779411e-38
0.31559145 0.40729928 3.1315007 1.7425324e-38
-1.6252701 0.42393655 3.12028 1.3282282e-38
-1.6097326 0.42509365 3.1231434 1.3373759e-38
-1.5890158 0.42663646 3.1269612 1.3373759e-38
-1.5692664 0.43864632 3.131799 1.3649985e-38
-1.4473876 0.42380881 3.1367111 2.3509886e-38
0.2976535 0.43487805 3.133225 1.7700832e-38
0.31758887 0.42765033 3.1338232 1.7333127e-38
0.33852309 0.43059832 3.1355827 1.7147661e-38
0.47955611 0.43382239 3.120451 1.5212629e-38
-1.950853 0.44149989 3.139034 1.9459392e-38
-1.5433706 0.44057482 3.1365714 1.3649985e-38
-1.527833 0.44173193 3.1394346 1.3649988e-38
-1.4859059 0.44421732 3.1205258 1.401696e-38
-1.4653682 0.44574684 3.1243107 1.2726583e-38
-1.4443508 0.44208801 3.1275902 1.3557794e-38
-1.423813 0.44361752 3.1313751 1.3649627e-38
-1.4032751 0.44514698 3.13516 1.3924773e-38
-1.3847686 0.45000792 3.1389666 1.392477e-38
0.2986522 0.44505352 3.1343863 1.7424968e-38
0.31958628 0.44800138 3.1361458 1.724057e-38
0.33815187 0.44434398 3.1370327 1.696363e-38
0.45468736 0.45851028 3.1213868 1.5029317e-38
-1.7727356 0.46148062 3.1262047 1.1990827e-38
-1.4307109 0.46431509 3.1220787 2.0007891e-38
-1.3441391 0.4695825 3.1217725 1.3925486e-38
-1.3256353 0.47268671 3.1253788 1.3925841e-38
-1.3029462 0.46747172 3.1287754 1.4018032e-38
-1.2825873 0.46898788 3.1325274 1.4017329e-38
-1.2622284 0.47050405 3.1362791 1.4017679e-38
-1.2409189 0.46173406 3.1390288 1.410988e-38
-1.2026564 0.46912986 3.1210558 1.4109523e-38
-1.1875163 0.47025737 3.1238458 1.4109524e-38
0.31136638 0.46942237 3.1378789 1.705654e-38
0.43949187 0.46010149 3.1205101 1.530447e-38
0.45666778 0.47868788 3.1236894 1.4844566e-38
-1.4286427 0.48538777 3.1244836 1.9732383e-38
-1.1707956 0.48177207 3.1280947 1.4293187e-38
-1.1430387 0.48383915 3.1332099 1.4200995e-38
-1.122852 0.4853425 3.1369302 1.4017322e-38
-1.0762298 0.49818942 3.1210468 1.4109157e-38
-1.0542908 0.4879443 3.1237397 1.3925123e-38
-1.03087 0.49195117 3.1283131 1.4016599e-38
-1.0099359 0.48955053 3.1317205 1.3832928e-38
-0.9877308 0.49459812 3.1361985 1.3833288e-38
-0.96474695 0.49121881 3.1398554 1.3832572e-38
-0.92424476 0.49843138 3.1222558 1.2634038e-38
0.40953907 0.49381551 3.1220651 1.5030034e-38
0.42776221 0.49700356 3.1236634 1.4845632e-38
0.44147229 0.48027909 3.1228127 1.4845291e-38
0.46877852 0.49780482 3.1265767 1.4476501e-38
0.51992512 0.49754512 3.1300743 1.4015884e-38
-1.4667296 0.5046736 3.1393962 2.3509886e-38
-1.4582834 0.51667178 3.1397555 2.3509886e-38
-1.4149606 0.51588899 3.1287012 1.9087369e-38
-0.89448082 0.50064796 3.1277409 1.3647817e-38
-0.8795988 0.50175625 3.1304834 1.3555625e-38
-0.85975617 0.50323397 3.1341403 1.3279748e-38
-0.83991349 0.50471169 3.1377969 1.3463432e-38
0.37254068 0.50788248 3.1210248 1.5398102e-38
0.3928012 0.50576085 3.1221936 1.5121874e-38
0.43838754 0.50098723 3.1248236 1.4661615e-38
0.46569377 0.51851273 3.1285872 1.4291748e-38
0.48088926 0.51692146 3.1294639 1.4108075e-38
0.51128006 0.51373905 3.131217 1.3830775e-38
0.52647555 0.51214784 3.1320937 1.3554907e-38
0.54216605 0.51560098 3.1335461 1.3737499e-38
-1.4128923 0.53696162 3.1311061 1.8903344e-38
-0.79694378 0.52218628 3.1228189 1.3094646e-38
-0.77726632 0.52365166 3.1264453 1.3186844e-38
-0.7575888 0.5251171 3.1300716 1.3463058e-38
-0.73053229 0.52713203 3.1350579 1.300317e-38
-0.67473233 0.52537322 3.1201494 1.3095004e-38
-0.65329027 0.52366126 3.1237247 1.3095001e-38
-0.63703007 0.52487218 3.1267214 1.3002805e-38
-0.61040622 0.52023745 3.1308753 1.3095004e-38
-0.59577203 0.52132726 3.1335723 1.3002808e-38
-0.57625973 0.52278042 3.1371682 1.2819136e-38
-0.5352807 0.53009057 3.1217062 1.3002435e-38
-0.51592672 0.53153193 3.125273 1.2819136e-38
-0.48931497 0.53351378 3.1301773 1.2726214e-38
-0.45786476 0.53585589 3.1359732 1.2634028e-38
-0.43851075 0.53729725 3.13954 1.2633673e-38
-0.40764314 0.53392816 3.1210864 0
-0.37315428 0.52673131 3.126332 1.2448914e-38
0.35426039 0.53018159 3.1221588 1.5121876e-38
0.37501618 0.5331043 3.1239033 1.4937843e-38
0.39478159 0.52593833 3.1244962 1.4845289e-38
0.44543308 0.52063429 3.1274183 1.4292828e-38
0.46767417 0.53869033 3.1308899 1.4015884e-38
0.48286965 0.53709906 3.1317666 1.3738943e-38
0.52845597 0.53232545 3.1343963 1.3462709e-38
0.5436514 0.53073424 3.135273 1.3278673e-38
-1.4214038 0.55914211 3.1329007 1.9179929e-38
-0.49747649 0.54275179 3.1297925 1.2634379e-38
-0.4781225 0.54419309 3.1333592 1.2817341e-38
0.35574567 0.54531473 3.1238859 1.5029677e-38
0.37650147 0.54823756 3.1256301 1.4752729e-38
0.39676198 0.54611593 3.1267989 1.4660534e-38
0.41776532 0.55156088 3.1288314 1.4383942e-38
0.43296075 0.54996967 3.1297081 1.4383943e-38
0.44815612 0.54837847 3.1305845 1.4199198e-38
0.46915948 0.55382347 3.132617 1.3555625e-38
0.48942006 0.55170184 3.1337857 1.3555256e-38
0.52994126 0.54745859 3.1361234 1.3186479e-38
0.54513669 0.54586738 3.1370001 1.3094278e-38
-1.4140456 0.57966089 3.1356108 1.8903345e-38
0.37798679 0.5633707 3.1273572 1.4660172e-38
0.3982473 0.56124908 3.128526 1.4476136e-38
-1.4066876 0.60017955 3.1383209 1.8533845e-38
-1.9142826 0.66869348 3.1314044 1.8352334e-38
-1.4178884 0.6956557 3.1205831 1.7520034e-38
-1.4127636 0.74786901 3.1265419 1.6599522e-38
-1.6530528 1.1549474 3.1200001 1.5670698e-38
-1.631158 1.1549474 3.1200001 1.5487749e-38
-1.6147369 1.1549474 3.1200001 1.5764692e-38
-1.5709475 1.1549474 3.1200001 1.6040202e-38
-1.5600001 1.1549474 3.1200001 1.61324e-38
-1.6037896 1.1713686 3.1200001 1.5672496e-38
-1.1326408 -0.71197444 3.1584682 1.6961825e-38
-1.1020539 -0.62124634 3.1410851 1.7607912e-38
-1.0801141 -0.62354374 3.1423509 1.7699392e-38
-1.1306126 -0.60169995 3.1412151 1.7793745e-38
-1.1004455 -0.60485899 3.1429553 1.7700469e-38
-1.0785058 -0.6071564 3.1442211 1.760935e-38
-1.3808405 -0.59130388 3.1543145 1.7424974e-38
-1.3697697 -0.59246314 3.1549532 1.7424974e-38
-1.1490057 -0.59149605 3.1410427 1.7793747e-38
-1.1317465 -0.58502543 3.1429269 1.7977058e-38
-1.0906096 -0.58933318 3.1453001 1.7884502e-38
-1.3559934 -0.5660587 3.1587377 1.7610807e-38
-1.146593 -0.56691504 3.1438479 1.8162173e-38
-1.1356231 -0.56806374 3.1444807 1.8162173e-38
-1.0884652 -0.56748337 3.1477938 1.7977056e-38
-1.2173609 -0.55398589 3.140358 1.8347646e-38
-1.1954212 -0.5562833 3.1416235 1.8346926e-38
-1.1784302 -0.55254394 3.1431963 1.8346928e-38
-1.0895993 -0.55080879 3.1495056 1.8345839e-38
-1.0786294 -0.55195755 3.1501386 1.8068899e-38
-1.2481259 -0.52868986 3.1409531 1.8532042e-38
-1.2316711 -0.53041297 3.1419022 1.8623876e-38
-1.2152163 -0.53213608 3.1428516 1.8531319e-38
-1.1932766 -0.53443348 3.1441171 1.8622796e-38
-1.171337 -0.53673095 3.1453829 1.8530599e-38
-1.1548822 -0.53845406 3.146332 1.843876e-38
-1.2679211 -0.50454271 3.1421809 1.8624598e-38
-1.2479885 -0.50846946 3.1431332 1.8716073e-38
-1.2300627 -0.51402563 3.1437724 1.8900104e-38
-1.2130718 -0.51028627 3.1453452 1.8899743e-38
-1.1966171 -0.51200938 3.1462944 1.8807546e-38
-1.1637076 -0.51545548 3.1481929 1.8807184e-38
-1.1519336 -0.50841057 3.1497607 1.8715346e-38
-1.3266469 -0.48183733 3.1405704 1.8532042e-38
-1.2833036 -0.49189466 3.1424785 1.8717152e-38
-1.2663127 -0.48815534 3.1440511 1.8900826e-38
-1.249858 -0.48987839 3.1450005 1.8901902e-38
-1.2114635 -0.49389893 3.1472154 1.8992656e-38
-1.1895238 -0.49619636 3.1484809 1.8899744e-38
-1.1667799 -0.49030012 3.1506817 1.8991938e-38
-1.1495209 -0.48382956 3.152566 1.8900101e-38
-1.1105903 -0.4823876 3.1554043 1.8990499e-38
-1.3497206 -0.46286535 3.1410167 1.8439493e-38
-1.3250384 -0.46544999 3.1424406 1.8532045e-38
-1.3025627 -0.46228498 3.1443295 1.8808987e-38
-1.284637 -0.46784115 3.1449687 1.8900823e-38
-1.2647042 -0.47176796 3.1459212 1.8900106e-38
-1.2427646 -0.47406542 3.147187 1.917705e-38
-1.2263098 -0.47578847 3.1481361 1.9177411e-38
-1.2090508 -0.46931791 3.1500206 1.9176691e-38
-1.1879153 -0.47980899 3.150351 1.9084856e-38
-1.1638312 -0.46025667 3.1541104 1.9176691e-38
-1.1473764 -0.46197975 3.1550596 1.9084494e-38
-1.1144669 -0.46542591 3.1569581 1.89001e-38
-1.3453697 -0.44676518 3.1430452 1.8624606e-38
-1.3009543 -0.44589764 3.1461999 1.8809346e-38
-1.2899845 -0.44704637 3.1468327 1.8901183e-38
-1.2605528 -0.4482888 3.1487279 1.9085577e-38
-1.2426271 -0.45384493 3.1493671 1.9361086e-38
-1.2247014 -0.45940113 3.1500063 1.9361079e-38
-1.1841213 -0.45997146 3.1527424 1.9360725e-38
-1.1452318 -0.44012994 3.157553 1.9453274e-38
-1.1088444 -0.44577983 3.1594548 1.9176321e-38
-1.3612884 -0.43957967 3.1427193 1.8440576e-38
-1.282355 -0.42577091 3.1496425 1.9177773e-38
-1.2604152 -0.42806837 3.1509082 1.9454e-38
-1.2439605 -0.42979142 3.1518576 1.9546555e-38
-1.169914 -0.4375453 3.1561291 1.9453278e-38
-1.3701137 -0.41658112 3.1445799 1.8809352e-38
-1.3021501 -0.40162367 3.1508706 1.917777e-38
-1.289242 -0.41125327 3.1507263 1.9269967e-38
-1.2500434 -0.40708011 3.1538765 1.9730585e-38
-1.1894411 -0.41066682 3.1576688 1.982206e-38
-1.1595421 -0.41655707 3.1590974 1.9729863e-38
-0.8211382 -0.41072819 3.1538179 2.0097547e-38
-0.80973816 -0.40645415 3.1550622 2.0097184e-38
-0.75433165 -0.40132061 3.1594329 2.0004629e-38
-1.3569994 -0.39588004 3.1477063 1.9085937e-38
-1.3315129 -0.39027101 3.1500654 1.9177771e-38
-1.3120478 -0.38955003 3.1514845 1.9269966e-38
-1.278602 -0.38753375 3.1540062 1.9730584e-38
-1.2566622 -0.38983122 3.155272 1.9914979e-38
-1.2347226 -0.39212865 3.1565378 2.000825e-38
-1.2177317 -0.38838929 3.1581104 2.0099726e-38
-1.196328 -0.39614916 3.1587527 1.982206e-38
-1.1798733 -0.39787224 3.1597018 2.0006452e-38
-0.79780698 -0.39676803 3.1569247 2.0189023e-38
-0.77606934 -0.39904431 3.1581788 2.0189023e-38
-1.3608758 -0.37891832 3.14926 2.0285209e-38
-1.3592675 -0.36253098 3.1511302 2.1205362e-38
-1.2534043 -0.37545612 3.1570399 2.0007173e-38
-1.2331142 -0.3757413 3.1584079 2.0375592e-38
-0.85002631 -0.36942872 3.1562605 2.0281578e-38
-0.79024774 -0.37568852 3.159709 2.0281578e-38
-1.3516381 -0.34125555 3.1539402 2.0928774e-38
-1.3445448 -0.32544258 3.1561267 2.03756e-38
-1.3687526 -0.28979605 3.1582854 2.1298274e-38
-1.352834 -0.29698157 3.1586111 2.0468875e-38
-1.4269422 -0.2616283 3.1572981 2.083801e-38
-1.4104875 -0.26335138 3.1582472 2.065326e-38
-1.3896199 -0.27657372 3.1582663 2.0653262e-38
-1.3676803 -0.27887118 3.1595321 2.0284482e-38
-1.3530831 -0.26569289 3.1417096 1.9544375e-38
-1.442861 -0.25444275 3.1569722 2.1021321e-38
-1.418413 -0.25504133 3.1596797 1.9636933e-38
-1.351428 -0.25367728 3.1433396 1.9635852e-38
-1.5299189 -0.22704315 3.1406825 2.0189744e-38
-1.5110769 -0.22389919 3.1447463 1.9912804e-38
-1.4571711 -0.23086989 3.1585166 2.0652897e-38
-1.3617287 -0.22252575 3.1446822 1.9451458e-38
-1.3523482 -0.23387384 3.1453052 1.9544015e-38
-1.5311157 -0.21197148 3.1420803 1.9913164e-38
-1.5128409 -0.20997533 3.1459076 1.9820969e-38
-1.4762025 -0.20716155 3.15852 2.3509879e-38
-1.3490381 -0.20984273 3.1485648 1.9267422e-38
-1.5483184 -0.19430447 3.1405966 1.9820969e-38
-1.4912422 -0.18933576 3.157902 2.350988e-38
-1.4180449 -0.19233572 3.1418247 2.3509884e-38
-1.3890483 -0.19017631 3.1471684 2.3509881e-38
-1.3653239 -0.18840951 3.1515405 2.3509886e-38
-1.3499308 -0.19085149 3.1515872 2.0558532e-38
-1.5592508 -0.17269498 3.1407797 1.9544742e-38
-1.5009618 -0.17111379 3.1582646 2.350988e-38
-1.4415952 -0.16726923 3.1405334 2.3509883e-38
-1.3851815 -0.17045584 3.148993 2.2310977e-38
-1.3670324 -0.17068741 3.1519248 2.1942194e-38
-1.3495811 -0.16855262 3.155304 2.185e-38
-1.5541772 -0.15368062 3.1438439 1.9360347e-38
-1.4902155 -0.14669418 3.1572399 1.8899366e-38
-1.4430723 -0.15128702 3.1420906 2.3509884e-38
-1.3874803 -0.14464688 3.1480381 1.8530585e-38
-1.3704772 -0.15067953 3.1507435 1.8530938e-38
-1.5551059 -0.1336931 3.1458275 1.9083404e-38
-1.5293897 -0.12855998 3.1547475 2.1204263e-38
-1.5105534 -0.13099846 3.154923 1.8806811e-38
-1.4874107 -0.13227117 3.159358 1.880681e-38
-1.45202 -0.12595382 3.1409032 2.0651818e-38
-1.4023728 -0.13216385 3.1514206 2.3509886e-38
-1.3631613 -0.1387628 3.1534815 1.843838e-38
-1.3450549 -0.13678509 3.1572735 1.8899003e-38
-1.5911815 -0.11048645 3.1412153 1.8898652e-38
-1.5703079 -0.11635059 3.1447041 1.8715702e-38
-1.5483308 -0.11123523 3.1496015 1.871462e-38
-1.5200834 -0.10217744 3.1561651 1.8438392e-38
-1.4667295 -0.10801017 3.1418157 2.0467789e-38
-1.4504265 -0.1097174 3.1427562 2.0559983e-38
-1.6058475 -0.083312333 3.1412642 1.8622424e-38
-1.5706692 -0.095215231 3.1469245 1.8530594e-38
-1.5475577 -0.087804258 3.1522946 1.8254363e-38
-1.5270143 -0.081216753 3.1570683 1.8162164e-38
-1.4537361 -0.087499768 3.1449134 2.0559986e-38
-1.6127784 -0.062351584 3.1421673 1.8070692e-38
-1.5853039 -0.076724827 3.1460378 1.8346559e-38
-1.5698963 -0.071784139 3.1496179 1.8254724e-38
-1.5544887 -0.06684351 3.153198 1.7978135e-38
-1.5339452 -0.060256004 3.1579716 1.7885578e-38
-1.4516113 -0.065851152 3.1473839 2.0560342e-38
-1.6179767 -0.046631038 3.1428449 1.7977778e-38
-1.594834 -0.047903806 3.1472797 1.7793743e-38
-1.5691235 -0.048353076 3.1523111 1.7885578e-38
-1.4494865 -0.044202566 3.1498547 2.0560702e-38
-1.6231748 -0.030910492 3.1435223 1.7793381e-38
-1.6063869 -0.028707147 3.1515274 2.0467417e-38
-1.5907638 -0.033700854 3.1539593 2.0651453e-38
-1.5666178 -0.030162215 3.1547787 1.75168e-38
-1.5434753 -0.031434983 3.1592135 1.7516797e-38
-1.4553159 -0.029011428 3.1510837 2.055998e-38
-1.6929282 -0.0067779822 3.1431949 2.2220216e-38
-1.628373 -0.015189886 3.1441996 1.7517153e-38
-1.6123915 -0.012980849 3.1521616 2.0283385e-38
-1.5914481 -0.017578363 3.1555738 2.0375223e-38
-1.571816 -0.014441669 3.1554561 1.7332404e-38
-1.5354482 -0.013336539 3.1415312 2.3509883e-38
-1.4620714 -0.0046103299 3.1532376 2.0744368e-38
-1.7082164 0.013735831 3.142839 2.1851432e-38
-1.684275 0.015518785 3.1472509 2.2312769e-38
-1.6632183 0.0098694861 3.150311 2.2404967e-38
-1.6575801 0.0044234395 3.1405551 1.7056898e-38
-1.6375034 0.011784524 3.1550498 2.2865584e-38
-1.6189412 0.0041450858 3.157445 2.3049615e-38
-1.4604778 0.011626124 3.1550906 2.0652174e-38
-1.8689646 0.026003361 3.1445758 1.9732736e-38
-1.8448064 0.027802467 3.1490278 2.0100796e-38
-1.8340695 0.028602064 3.1510067 2.0100796e-38
-1.709707 0.029864073 3.1444101 2.1759597e-38
-1.6857659 0.031647027 3.1488223 2.2036183e-38
-1.6644979 0.029308021 3.1471014 1.9454346e-38
-1.6432035 0.034816742 3.156666 2.2588996e-38
-1.6204318 0.020273328 3.1590164 2.3049258e-38
-1.5856779 0.027479768 3.1572626 1.6686679e-38
-1.4599875 0.035268396 3.1576629 2.0651814e-38
-1.8800255 0.057952225 3.1462634 1.9179918e-38
-1.8682859 0.047902286 3.1471848 1.9455785e-38
-1.8463106 0.044076741 3.1506135 1.9641256e-38
-1.8355737 0.044876337 3.1525924 1.9917842e-38
-1.7409561 0.04918921 3.1411128 2.1206064e-38
-1.7116945 0.051368415 3.1465054 2.1483366e-38
-1.6893612 0.051227331 3.1504161 2.1759595e-38
-1.6734531 0.049563915 3.1423135 1.6042386e-38
-1.5857401 0.04484719 3.1591334 1.631898e-38
-1.4733284 0.048512235 3.1581647 2.0744013e-38
-1.908372 0.072227478 3.1429021 1.8534549e-38
-1.8868982 0.073826671 3.1468594 1.8811133e-38
-1.8654243 0.075425863 3.1508167 1.8996243e-38
-1.8478147 0.060351014 3.1521993 1.9640173e-38
-1.8316503 0.070658267 3.1562133 1.9732372e-38
-1.8102356 0.063149571 3.1591249 2.0193351e-38
-1.7410046 0.069033682 3.1433604 2.0746161e-38
-1.7216625 0.07227844 3.14713 2.1206779e-38
-1.7057017 0.073467076 3.1500714 2.1298617e-38
-1.6818383 0.077785969 3.1437166 1.5305545e-38
-1.6560967 0.068652987 3.1478126 1.5581765e-38
-1.6355531 0.075240493 3.1525862 1.5672891e-38
-1.9103775 0.093926609 3.1450164 1.8073927e-38
-1.8889036 0.095525801 3.1489737 1.8350518e-38
-1.8674297 0.097124994 3.152931 1.871894e-38
-1.8505723 0.090187252 3.1551061 1.9087362e-38
-1.8352189 0.099523783 3.1588671 1.9179917e-38
-1.7449311 0.092197955 3.1453032 2.0285901e-38
-1.6902487 0.097453386 3.1498637 1.8071413e-38
-1.6612948 0.084373474 3.1484902 1.5305184e-38
-1.6418858 0.088665307 3.1527905 1.5304463e-38
-1.6218783 0.085421354 3.1563921 1.5488496e-38
-1.9333556 0.10860169 3.1426444 1.761259e-38
-1.9123831 0.11562568 3.1471305 1.7613309e-38
-1.8694353 0.11882401 3.155045 1.8166842e-38
-1.7115815 0.10742383 3.1489017 1.8809335e-38
-1.6932189 0.1122883 3.1566792 2.0745442e-38
-1.6693602 0.10303861 3.1489205 1.4845287e-38
-1.9553797 0.1324513 3.1414838 1.6691355e-38
-1.8894784 0.13098669 3.152904 1.7521477e-38
-1.8533299 0.12002349 3.1580131 1.8350515e-38
-1.7283106 0.13243383 3.1404593 1.4199561e-38
-1.9539734 0.1562252 3.1444333 1.613962e-38
-1.8714409 0.14052314 3.1571593 1.7705151e-38
-1.4628808 0.14940926 3.1414933 2.0099365e-38
-1.4521093 0.14828134 3.1421146 2.0467782e-38
-1.9554776 0.17249954 3.146019 1.5586449e-38
-1.8949202 0.16062295 3.1553161 1.6876109e-38
-1.8714899 0.16054714 3.1594274 1.74282e-38
-1.4605119 0.17354536 3.1442478 2.0191562e-38
-2.0004306 0.19100016 3.1402183 1.4665216e-38
-1.9607277 0.19031554 3.1471214 1.5126194e-38
-1.7405019 0.18648255 3.1439109 1.3186118e-38
-1.7216911 0.19831026 3.1489103 1.3924764e-38
-1.4584062 0.19499969 3.1466961 2.0100084e-38
-1.9885136 0.20827404 3.1442776 1.4296431e-38
-1.9643557 0.21007305 3.1487296 1.4572658e-38
-1.7054484 0.2093145 3.1533132 1.4108081e-38
-1.6771386 0.20100486 3.1580057 1.3645301e-38
-1.4509147 0.21589001 3.1494555 2.0191556e-38
-2.1026294 0.23179555 3.1565151 1.3007135e-38
-2.0907807 0.22165224 3.1574452 1.3282285e-38
-1.9878349 0.23017299 3.1468863 1.3651782e-38
-1.9663613 0.23177218 3.1508436 1.3835464e-38
-1.6214435 0.22249705 3.1416175 1.4107724e-38
-1.6028059 0.23421592 3.1465707 1.4200281e-38
-1.5858233 0.23391902 3.1498942 1.4476139e-38
-1.4490722 0.23466249 3.1515977 2.0007885e-38
-2.0220513 0.24947327 3.1430645 1.3006419e-38
-2.0005774 0.25107247 3.1470218 1.3191164e-38
-1.9844719 0.25227183 3.1499898 1.3283359e-38
-1.9683667 0.2534712 3.1529579 1.3283362e-38
-1.5689026 0.25082976 3.1550715 1.4293192e-38
-1.4467033 0.2587986 3.1543522 2.0099361e-38
-2.2101326 0.27340555 3.142344 0
-2.1938777 0.27461606 3.1453397 0
-2.1056657 0.26464671 3.1597159 1.2178088e-38
-2.0455306 0.26957315 3.141221 1.2362128e-38
-2.0240567 0.27117234 3.1451786 1.2546161e-38
-2.0042055 0.27082998 3.1486301 1.2638713e-38
-1.9859761 0.26854616 3.1515753 1.2914571e-38
-1.9703723 0.27517033 3.155072 1.2914938e-38
-1.5115575 0.27850342 3.1407046 1.3737851e-38
-1.4644086 0.27085868 3.1491919 1.4567257e-38
-1.4475785 0.27056456 3.1524856 1.456726e-38
-1.4338264 0.27912498 3.1574221 2.0191196e-38
-2.2279058 0.28862059 3.1409488 0
-2.2116506 0.28983116 3.1439443 0
-2.1953957 0.29104167 3.14694 0
-2.173722 0.29265577 3.150934 0
-2.0448518 0.29147211 3.1438298 1.2176657e-38
-2.0287466 0.2926715 3.1467981 1.2084823e-38
-2.0094554 0.28864598 3.1497321 1.2085185e-38
-1.9718764 0.2914446 3.1566577 1.2454316e-38
-1.4913858 0.28497171 3.1453917 1.3921162e-38
-1.4734623 0.29261607 3.1497624 1.4289231e-38
-1.4510119 0.28938174 3.1538477 1.4198112e-38
-1.4264855 0.2928867 3.1596091 1.7332769e-38
-2.2126627 0.30078143 3.1450112 0
-2.1949389 0.30577666 3.1486955 0
-2.1752403 0.30908126 3.1525342 0
-2.1535671 0.31069535 3.1565285 0
-1.4308708 0.30437654 3.1594532 1.3830409e-38
-2.1605034 0.32671738 3.1571305 0
-1.3733912 0.3261447 3.1444724 1.4568329e-38
-1.3308842 0.33131599 3.1534321 1.4290306e-38
0.19312316 0.33756882 3.1407726 1.9820969e-38
0.20857984 0.33595026 3.1416643 1.9636943e-38
0.2693609 0.33649725 3.1459129 1.8990849e-38
0.2934047 0.33397949 3.1472998 1.8714268e-38
0.31024307 0.32876033 3.1479001 1.8254363e-38
-2.0962496 0.35045862 3.1414986 0
-2.0745254 0.34934545 3.1451919 0
-2.0530515 0.35094464 3.1491492 0
-2.0315776 0.35254383 3.1531067 0
-2.0079801 0.35065979 3.1570415 0
-1.9934968 0.34991765 3.1595035 0
-1.3734517 0.34304333 3.1462924 1.4567616e-38
-1.3509642 0.35025427 3.1515179 1.4476142e-38
0.27447444 0.35324138 3.1480629 1.8806814e-38
0.29164857 0.35144299 3.1490536 1.8438753e-38
0.30848694 0.34622371 3.1496539 1.8162889e-38
-2.0755279 0.36019498 3.1462491 0
-2.054054 0.36179417 3.1502063 0
-2.0379486 0.36299354 3.1531744 0
-1.910587 0.37758112 3.1486201 1.2084818e-38
-1.8893057 0.37916595 3.1525419 1.2085535e-38
0.27958792 0.36998546 3.150213 1.8623144e-38
0.29039603 0.3740375 3.1513929 1.8254722e-38
-1.9488227 0.38555968 3.1428044 1.2175218e-38
-1.932862 0.38674831 3.1457458 1.2359249e-38
-1.8956199 0.38952184 3.1526091 1.208589e-38
-1.8583779 0.3922953 3.1594722 1.2545073e-38
-1.7905027 0.3914305 3.1427016 1.2728751e-38
-1.7694143 0.39300096 3.1465881 1.2912783e-38
-1.7483259 0.39457148 3.1504743 1.2912427e-38
-1.7114211 0.39731985 3.1572754 1.3004619e-38
-1.4380733 0.39460272 3.1413031 2.0099722e-38
0.27783179 0.38744891 3.1519668 1.8346559e-38
-1.7914873 0.4020853 3.1437399 1.2636552e-38
-1.770399 0.40365577 3.1476264 1.2636193e-38
-1.7493106 0.40522629 3.1515126 1.2728393e-38
-1.7282221 0.40679675 3.1553991 1.2728395e-38
-1.6466892 0.40706593 3.1421807 1.3004972e-38
-1.6315004 0.4135139 3.1455841 1.2913499e-38
-1.6153353 0.40940094 3.1479588 1.2821306e-38
-1.4359866 0.4158628 3.1437294 1.982386e-38
0.27048439 0.40981767 3.1538615 1.8254722e-38
0.29392132 0.40995538 3.1554918 1.779411e-38
-1.6549582 0.42062837 3.1422684 1.3006054e-38
-1.6110859 0.42035109 3.1499505 1.3004972e-38
-1.5887668 0.42555773 3.1544669 1.3281559e-38
-1.5749943 0.42835563 3.1572063 1.3189362e-38
-1.5066324 0.43804121 3.1427426 1.3649985e-38
-1.485432 0.43435049 3.1460505 1.3558499e-38
-1.4647154 0.4358933 3.1498682 1.2725502e-38
-1.4435148 0.43220264 3.1531763 1.3372674e-38
-1.4311805 0.43785807 3.1513524 1.6782119e-38
-1.4129235 0.43975037 3.1594129 1.3833291e-38
0.27224705 0.42777655 3.1559112 1.816181e-38
0.30058438 0.4248091 3.157546 1.7701551e-38
-1.4318134 0.45838284 3.148582 1.9639466e-38
-1.3621997 0.44820595 3.1427298 1.3925481e-38
-1.3440126 0.45652574 3.1468732 1.3925482e-38
0.26653314 0.44911039 3.1578076 1.7977771e-38
0.28198981 0.44749182 3.1586993 1.7609723e-38
-2.0090919 0.47348225 3.1402719 1.8261219e-38
-1.9988672 0.47526121 3.1402938 1.844561e-38
-1.4297267 0.47964281 3.1510081 1.9546911e-38
-1.3276968 0.46644747 3.1508698 1.4017676e-38
-1.3118141 0.46240634 3.153203 1.4018032e-38
-1.2892451 0.46060443 3.1569662 1.4017686e-38
-1.2418696 0.47202021 3.1400311 1.4109877e-38
-1.2205601 0.46325022 3.1427805 1.429319e-38
-1.2002012 0.46476638 3.1465325 1.4293192e-38
-1.0815357 0.47814992 3.1433768 1.4200993e-38
-1.0663955 0.47927743 3.146167 1.4016963e-38
-2.01176 0.48881114 3.1407773 1.8353054e-38
-1.0310687 0.48190829 3.1526773 1.3832213e-38
-0.99574178 0.48453915 3.1591876 1.401696e-38
-0.94275278 0.48946276 3.1435232 1.2449999e-38
-0.92425025 0.48914364 3.14674 1.3002818e-38
-0.90423548 0.49063423 3.1504283 1.3647817e-38
-0.88422072 0.49212477 3.1541169 1.3555625e-38
-0.86420602 0.49361524 3.1578052 1.3463782e-38
0.33429793 0.49272129 3.1419609 1.6318977e-38
-1.9999802 0.51191813 3.1414843 1.835449e-38
-1.4276401 0.50090289 3.1534345 1.9454718e-38
-0.80859572 0.51713842 3.144716 1.3187201e-38
-0.78131205 0.51917028 3.149744 1.3187199e-38
-0.65930974 0.51575214 3.1462867 1.3094642e-38
-0.63814569 0.51899672 3.1503766 1.3094641e-38
-0.59833121 0.51695657 3.1571448 1.3095004e-38
-0.51193362 0.51764446 3.1478941 1.3002435e-38
-0.48998228 0.51927924 3.1519396 1.291025e-38
0.33068728 0.50851959 3.1434081 1.6227134e-38
0.34090471 0.50744963 3.1439974 1.6134588e-38
-1.9914603 0.53358054 3.1421561 1.8261935e-38
-1.961749 0.53436291 3.1420782 1.8906941e-38
-1.9599702 0.52414358 3.141741 1.899806e-38
-1.4133149 0.53699017 3.1582961 1.8903704e-38
-0.76146942 0.520648 3.1534009 1.3094644e-38
-0.74162674 0.52212572 3.1570575 1.3186125e-38
-0.67796004 0.5210368 3.1436083 1.3371215e-38
-0.61846817 0.5204621 3.1540029 1.3095002e-38
-0.55674744 0.52423352 3.140764 1.2818416e-38
-0.53723514 0.52568662 3.1443601 1.3094631e-38
-0.51772285 0.52713972 3.1479559 1.2634026e-38
-0.49821058 0.52859282 3.1515517 1.2910611e-38
-0.47737595 0.53345323 3.1557674 1.2726221e-38
-0.45918596 0.53149909 3.1587434 1.2634026e-38
-0.42399529 0.53837824 3.142215 1.2358518e-38
-0.389222 0.53112197 3.1475039 1.2081215e-38
0.3326847 0.52887064 3.1457305 1.5674688e-38
0.34290212 0.52780068 3.1463199 1.567433e-38
0.37405366 0.52967864 3.148669 1.502896e-38
0.38427109 0.52860874 3.1492584 1.4937487e-38
-2.0019825 0.55368471 3.1428435 1.8077905e-38
-1.9917578 0.55546367 3.1428654 1.7985708e-38
-1.9439673 0.55324984 3.1426277 1.8998775e-38
-1.9226284 0.55169809 3.1425033 1.9183884e-38
-1.9072912 0.55436659 3.1425364 1.9459745e-38
-1.4170867 0.55349404 3.1598079 1.8902985e-38
0.3444002 0.54306388 3.148062 1.5398818e-38
-1.9244071 0.56191742 3.1428404 1.8906218e-38
-1.9048468 0.57058507 3.1430528 1.9275005e-38
-1.8895096 0.57325351 3.143086 1.97349e-38
-1.340922 0.56867737 3.141031 2.3509886e-38
-1.2944657 0.57412803 3.141046 2.3509886e-38
-1.2582343 0.57779968 3.1410389 2.3509886e-38
0.35711443 0.567433 3.1515543 1.4753449e-38
0.3673318 0.5663631 3.152144 1.484456e-38
-1.9297432 0.59257519 3.1438513 1.8905862e-38
-1.9069967 0.59302312 3.1437869 1.9183169e-38
-1.8921776 0.58858228 3.1435916 1.8998771e-38
-1.5116336 0.58109081 3.1420262 2.3509886e-38
-1.330809 0.58623016 3.1415641 2.3509886e-38
-1.3078032 0.59023285 3.1416135 2.3509886e-38
-1.2924659 0.59290135 3.1416469 2.3509886e-38
-1.2437863 0.58557773 3.1412404 2.3509886e-38
-1.2233367 0.58913565 3.1412845 2.3509886e-38
-1.20059 0.58958364 3.1412199 2.3509886e-38
-1.1696564 0.59847534 3.1414003 2.3509886e-38
-1.1426494 0.59966457 3.1413448 2.3509886e-38
-1.9315219 0.60279441 3.1441884 1.8906218e-38
-1.9110723 0.60635239 3.1442325 1.9182083e-38
-1.8446112 0.61791575 3.1443758 2.0195875e-38
-1.3420351 0.60533446 3.1422215 2.3509886e-38
-1.2909111 0.61422938 3.1423316 2.3509886e-38
-1.2658675 0.6115675 3.1421585 2.3509886e-38
-1.2450467 0.60290641 3.1418059 2.3509886e-38
-1.2311171 0.60357523 3.1417789 2.3509886e-38
-1.1836978 0.61358029 3.141938 2.3509886e-38
-1.1646559 0.61513859 3.1419225 2.3509886e-38
-1.1442062 0.61869657 3.1419663 2.3509886e-38
-1.1210885 0.60692549 3.141505 2.3509886e-38
-1.0983418 0.60737348 3.1414404 2.3509886e-38
-1.0119494 0.61538553 3.1413996 2.3509886e-38
-1.4778492 0.62908381 3.1434624 2.3509886e-38
-1.3627083 0.63332379 3.1431994 2.3509886e-38
-1.3435919 0.62436634 3.142843 2.3509886e-38
-1.3302553 0.62844145 3.1429286 2.3509886e-38
-1.314918 0.63110995 3.1429615 2.3509886e-38
-1.2944685 0.63466793 3.1430056 2.3509886e-38
-1.2740189 0.63822591 3.1430497 2.3509886e-38
-1.2500118 0.62134528 3.1424198 2.3509886e-38
-1.2295622 0.62490326 3.1424639 2.3509886e-38
-1.2111132 0.62986791 3.1425607 2.3509886e-38
-1.1886629 0.63201922 3.1425521 2.3509886e-38
-1.169621 0.63357753 3.1425366 2.3509886e-38
-1.1477637 0.63913512 3.1426404 2.3509886e-38
-1.1119759 0.62518156 3.1420643 2.3509886e-38
-1.4805173 0.64441282 3.1439679 2.3509886e-38
-1.4120966 0.65396917 3.1437228 1.7889911e-38
-1.3477423 0.6482113 3.1436293 2.3509886e-38
-1.3338127 0.64888 3.1436026 2.3509886e-38
-1.3092508 0.65403074 3.1436839 2.3509886e-38
-1.2502356 0.65289259 3.1434422 2.3509886e-38
-1.238232 0.64445233 3.143127 2.3509886e-38
-1.2066681 0.64467961 3.1430247 2.3509886e-38
-1.1902198 0.65105098 3.1431737 2.3509886e-38
-1.1768831 0.65512621 3.1432593 2.3509886e-38
-1.1273141 0.6426931 3.1426845 2.3509886e-38
-1.1082721 0.64425141 3.1426687 2.3509886e-38
-1.3527073 0.66665012 3.1442435 2.3509886e-38
-1.3297014 0.67065281 3.1442931 2.3509886e-38
-1.3015833 0.67554504 3.1443536 2.3509886e-38
-1.1906654 0.67378581 3.1439111 2.3509886e-38
-1.175328 0.67645419 3.1439443 2.3509886e-38
-1.1061988 0.67268866 3.1435821 2.3509886e-38
-1.0908616 0.6753571 3.1436152 2.3509886e-38
-1.0755243 0.6780256 3.1436481 2.3509886e-38
-1.420091 0.68141782 3.1461184 1.6506255e-38
-1.3485961 0.68842268 3.1449342 2.3509886e-38
-1.3255903 0.69242537 3.1449835 2.3509886e-38
-1.3051406 0.69598335 3.1450276 2.3509886e-38
-1.2846911 0.69954133 3.1450717 2.3509886e-38
-1.269242 0.6864363 3.1445937 2.3509886e-38
-1.2104493 0.69666541 3.1447206 2.3509886e-38
-1.1728837 0.69267267 3.1444609 2.3509886e-38
-1.1548785 0.68001223 3.1439884 2.3509886e-38
-1.1364295 0.68497694 3.1440849 2.3509886e-38
-1.1139792 0.68712819 3.1440766 2.3509886e-38
-1.0935296 0.69068599 3.1441207 2.3509886e-38
-1.0730801 0.69424409 3.1441646 2.3509886e-38
-1.4217615 0.71884888 3.1500218 1.7060136e-38
-1.4058919 0.71718705 3.1509373 1.6967939e-38
-1.3512641 0.70375168 3.1454396 2.3509886e-38
-1.3282583 0.70775437 3.1454892 2.3509886e-38
-1.2630193 0.71120852 3.1453743 2.3509886e-38
-1.2437918 0.70665723 3.14516 2.3509886e-38
-1.2233422 0.71021521 3.1452041 2.3509886e-38
-1.208005 0.71288371 3.1452372 2.3509886e-38
-1.1592143 0.70996666 3.1449733 2.3509886e-38
-1.1379863 0.70400876 3.1447065 2.3509886e-38
-1.1124243 0.70845622 3.1447616 2.3509886e-38
-1.0894184 0.71245891 3.1448112 2.3509886e-38
-1.0706357 0.71046245 3.1446815 2.3509886e-38
-1.4202104 0.73465353 3.1518254 1.6968662e-38
-1.4038236 0.73825967 3.1533422 1.6599518e-38
-1.2464598 0.72198623 3.1456656 2.3509886e-38
-1.2260102 0.72554421 3.1457098 2.3509886e-38
-1.210673 0.72821271 3.1457429 2.3509886e-38
-1.1415436 0.72444707 3.1453805 2.3509886e-38
-1.121094 0.72800505 3.1454246 2.3509886e-38
-1.1020521 0.72956347 3.1454089 2.3509886e-38
-1.0844178 0.72912192 3.1453333 2.3509886e-38
-1.4022725 0.75406432 3.1551459 1.6415488e-38
-1.1314307 0.7419998 3.1459136 2.3509886e-38
-1.1084249 0.7460025 3.1459632 2.3509886e-38
-1.411818 0.76570857 3.1557381 1.6323296e-38
-1.6407949 1.1767317 3.1490002 1.5487749e-38
-1.6297457 1.1767317 3.1490002 1.5672496e-38
-1.6297457 1.1933054 3.1490002 1.5488105e-38
-1.1642927 -0.6641047 3.1614258 1.7240577e-38
-1.1621284 -0.64205366 3.1639423 1.7700116e-38
-1.123505 -0.59040403 3.1721497 1.8068892e-38
-1.1286311 -0.56666136 3.1743453 1.8161447e-38
-1.3543702 -0.54952043 3.1606252 1.7887394e-38
-1.31454 -0.54255247 3.1641185 1.8071787e-38
-1.1532007 -0.55109322 3.1743231 1.8254361e-38
-1.1357828 -0.544563 3.1762247 1.843875e-38
-1.1136411 -0.54688162 3.1775019 1.8161806e-38
-1.0909584 -0.54368746 3.1794086 1.7977058e-38
-1.3129169 -0.52601421 3.1660058 1.8163981e-38
-1.2957695 -0.5222404 3.1675932 1.8348732e-38
-1.1502249 -0.52077305 3.1777835 1.862315e-38
-1.1336186 -0.52251196 3.1787415 1.8438759e-38
-1.3309382 -0.51020348 3.1664612 1.8255817e-38
-1.3107526 -0.50396317 3.1685226 1.8256175e-38
-1.2946874 -0.51121485 3.1688516 1.8532042e-38
-1.2493218 -0.50482661 3.1726644 1.8716792e-38
-1.2382509 -0.50598592 3.1733029 1.8900101e-38
-1.1486017 -0.50423479 3.1796708 1.8714268e-38
-1.3257357 -0.48568594 3.169452 1.8348732e-38
-1.3091294 -0.48742491 3.1704099 1.8532762e-38
-1.2482396 -0.49380106 3.1739228 1.8809706e-38
-1.2371687 -0.49496037 3.1745613 1.8993016e-38
-1.3241125 -0.46914768 3.1713393 1.8624596e-38
-1.3080473 -0.47639942 3.1716683 1.8624596e-38
-1.3475999 -0.44255406 3.1725755 1.8440927e-38
-1.3274837 -0.44651702 3.1735365 1.8533121e-38
-1.2852257 -0.4527986 3.1757753 1.899338e-38
-1.2439111 -0.44969901 3.1789558 1.9454001e-38
-1.2273048 -0.45143795 3.1799138 1.9362156e-38
-1.3648791 -0.42867759 3.172874 1.8624595e-38
-1.3474611 -0.42214739 3.1747758 1.8809345e-38
-1.3253193 -0.42446598 3.1760533 1.8901183e-38
-1.3092542 -0.43171772 3.1763821 1.9085214e-38
-1.1475 -0.4067809 3.1609771 1.9637669e-38
-0.93090725 -0.4018687 3.1764343 2.1110256e-38
-0.91993743 -0.4030174 3.1770673 2.1202452e-38
-0.72715962 -0.40416595 3.1610003 2.0281218e-38
-0.69945627 -0.40159917 3.1631856 2.0281574e-38
-0.6777187 -0.40387544 3.1644397 2.0281574e-38
-1.36028 -0.38181919 3.1782217 1.9453278e-38
-1.3492092 -0.38297847 3.1788604 1.9545474e-38
-1.178265 -0.3814849 3.161572 2.0099007e-38
-1.1563253 -0.38378236 3.1628377 2.0098646e-38
-1.1398705 -0.38550544 3.1637869 2.000645e-38
-0.93277675 -0.38327762 3.1783016 1.9820967e-38
-0.918329 -0.38663006 3.1789374 2.0005716e-38
-0.7284807 -0.38033399 3.1634681 2.037341e-38
-0.71496278 -0.39177373 3.1631715 2.018902e-38
-0.67069072 -0.38820809 3.1666062 2.0373052e-38
-0.65438741 -0.38991532 3.1675467 2.0465248e-38
-0.63264978 -0.39219162 3.1688006 2.05578e-38
-0.61581534 -0.38848668 3.1703587 2.0834029e-38
-1.1939155 -0.37156814 3.1615582 2.0283399e-38
-1.1541809 -0.36193258 3.1653314 2.019156e-38
-1.1377261 -0.36365563 3.1662805 1.9915332e-38
-1.0044794 -0.36105293 3.1757448 2.0276902e-38
-0.99458188 -0.37312657 3.1751311 1.8710656e-38
-0.97812706 -0.37484965 3.1760802 2.0279785e-38
-0.95538318 -0.36895341 3.1782811 1.9913525e-38
-0.77043056 -0.36956206 3.1617327 2.0373415e-38
-0.75032729 -0.36984462 3.1630883 2.0373413e-38
-0.72834444 -0.36029974 3.1656282 2.0557804e-38
-0.70532656 -0.36817786 3.166369 2.0557805e-38
-0.66909713 -0.37197167 3.1684589 2.0742199e-38
-0.65226263 -0.36826673 3.1700172 2.0558171e-38
-0.63052499 -0.37054303 3.1712711 2.0649997e-38
-0.61422175 -0.37225023 3.1722116 2.0741838e-38
-1.1761205 -0.35963511 3.1640656 2.0283757e-38
-1.1520363 -0.34008276 3.167825 2.0467433e-38
-1.1355815 -0.34180582 3.1687741 2.0375597e-38
-0.99297345 -0.35673922 3.1770012 2.0005719e-38
-0.97651863 -0.3584623 3.1779504 1.9913526e-38
-0.79302621 -0.3480587 3.1624837 2.0557809e-38
-0.70991641 -0.34035838 3.1690392 2.0834391e-38
-0.69361311 -0.34206557 3.1699798 2.0741846e-38
-0.67351002 -0.34234816 3.1713355 2.0833676e-38
-0.65013784 -0.34661818 3.172488 2.0742199e-38
-0.62840021 -0.34889448 3.1737418 2.0833665e-38
-0.61209697 -0.35060167 3.1746824 2.0834395e-38
-1.1731718 -0.32959163 3.1674943 2.0651824e-38
-1.1482422 -0.32024521 3.1702161 2.0743659e-38
-0.79196382 -0.33723444 3.1637189 2.0741839e-38
-0.76916385 -0.32868642 3.1662083 2.0834395e-38
-0.7425229 -0.33694392 3.1671584 2.0742201e-38
-0.72542286 -0.33053294 3.1690254 2.0834035e-38
-0.70832288 -0.32412189 3.170892 2.1018063e-38
-0.69201958 -0.32582915 3.1718326 2.1110261e-38
-0.67028201 -0.32810539 3.1730866 2.0834395e-38
-0.64854431 -0.33038169 3.1743407 2.1018789e-38
-0.62680668 -0.33265799 3.1755946 2.0925862e-38
-0.61050344 -0.33436519 3.1765351 2.1019142e-38
-1.1427984 -0.30241996 3.1725051 2.0651821e-38
-1.1323647 -0.30903113 3.1725144 2.0651821e-38
-0.76810145 -0.31786209 3.1674435 2.0834395e-38
-0.72303253 -0.30617827 3.1718047 2.1203176e-38
-0.70672929 -0.3078855 3.172745 2.1018781e-38
-0.69241458 -0.31120712 3.1733756 2.1110982e-38
-0.667054 -0.31386277 3.1748385 2.1018789e-38
-0.64695072 -0.31414527 3.1761937 2.1110985e-38
-0.62521309 -0.31642157 3.1774476 2.1110975e-38
-0.60890985 -0.31812879 3.1783881 2.1111336e-38
-1.3908763 -0.28678197 3.1616793 1.9912792e-38
-1.3512255 -0.28059423 3.1604812 2.0284485e-38
-0.72905934 -0.28367609 3.1738052 2.1203177e-38
-0.70460451 -0.28623691 3.1752157 2.1387562e-38
-0.69373572 -0.28737506 3.1758428 2.1111339e-38
-0.64283746 -0.29088241 3.1789749 2.1295372e-38
-0.6230883 -0.29477301 3.1799183 2.1203177e-38
-1.4012104 -0.2727083 3.1611631 1.9820959e-38
-1.3869072 -0.26397702 3.1624398 1.9914964e-38
-1.3660719 -0.26248384 3.1614022 2.0284479e-38
-1.3496171 -0.26420689 3.1623514 2.0284122e-38
-0.7356174 -0.26658607 3.1751878 2.1571963e-38
-0.70981419 -0.26473159 3.1771655 2.138757e-38
-0.69214213 -0.27113861 3.1776958 2.1387571e-38
-1.4081413 -0.25174758 3.1620665 1.9544378e-38
-1.3927337 -0.24680695 3.1656466 1.9452183e-38
-1.3727263 -0.25005096 3.1692481 1.9543656e-38
-1.425344 -0.23408061 3.1605828 1.9544016e-38
-1.4111714 -0.23068178 3.1624787 1.9913888e-38
-1.3996646 -0.22584623 3.1665497 1.9543296e-38
-1.350057 -0.23104928 3.1658809 2.0375954e-38
-1.4655619 -0.2063691 3.1604807 2.3509879e-38
-1.4550265 -0.20902009 3.1610103 2.0559984e-38
-1.4202704 -0.21506631 3.1636472 1.9451463e-38
-1.4055307 -0.21488874 3.1652308 1.9822052e-38
-1.3828651 -0.21079955 3.1715007 1.9267068e-38
-1.356298 -0.21935858 3.1667058 2.0375956e-38
-1.4617321 -0.18984467 3.1630328 2.3509883e-38
-1.4490585 -0.18518193 3.1650505 2.1943276e-38
-1.4278879 -0.19071853 3.166882 2.1204628e-38
-1.4122038 -0.1876539 3.1701427 2.129646e-38
-1.3895175 -0.18781763 3.1726782 1.9083034e-38
-1.3723772 -0.18811718 3.1760325 1.8990838e-38
-1.3486686 -0.19808312 3.1695158 2.0284478e-38
-1.3097205 -0.18695064 3.1614828 2.3509881e-38
-1.2804779 -0.18745491 3.1665668 2.350988e-38
-1.2546097 -0.1801644 3.1719439 2.3509884e-38
-1.1999191 -0.19754776 3.1795833 2.3509883e-38
-1.4850008 -0.16992515 3.161206 2.3509881e-38
-1.46904 -0.16873652 3.1641474 2.3509883e-38
-1.4521706 -0.16269481 3.1645107 1.9729135e-38
-1.4346551 -0.17027241 3.167623 2.1020236e-38
-1.4137545 -0.16891131 3.1718702 2.1204265e-38
-1.3975829 -0.16915259 3.1731083 1.8898648e-38
-1.3492665 -0.17594612 3.1718512 2.0284839e-38
-1.3394307 -0.16042033 3.174196 2.046815e-38
-1.3109515 -0.17363214 3.1627803 2.3509884e-38
-1.2482368 -0.17253771 3.1739316 2.3509884e-38
-1.2340136 -0.17326653 3.1763492 2.3509883e-38
-1.4646578 -0.14329009 3.1652627 2.1112072e-38
-1.4502434 -0.14027128 3.1706884 2.3509886e-38
-1.4337996 -0.15111211 3.1693621 2.0374864e-38
-1.4102614 -0.14789648 3.1748977 2.1020235e-38
-1.3504006 -0.15927163 3.1735632 2.0375953e-38
-1.3045205 -0.15706098 3.1657948 2.3509884e-38
-1.2834321 -0.15549052 3.1696811 2.3509886e-38
-1.5102571 -0.12850139 3.1614747 2.3509884e-38
-1.4889759 -0.12691647 3.1653965 2.3509883e-38
-1.467281 -0.12550765 3.1667252 2.1019875e-38
-1.4491098 -0.12710825 3.1693416 2.028267e-38
-1.4345713 -0.13121141 3.1718545 2.0835848e-38
-1.4103104 -0.12493545 3.1753881 1.8345833e-38
-1.3976203 -0.13225257 3.1732087 2.0192283e-38
-1.5282055 -0.10818565 3.1606286 2.3509883e-38
-1.5122447 -0.10699701 3.1635699 2.3509884e-38
-1.4917862 -0.11098139 3.1637635 2.1020234e-38
-1.4734418 -0.10771868 3.1675146 2.0928038e-38
-1.4495488 -0.10666732 3.1732931 2.2035114e-38
-1.4369063 -0.10862623 3.174294 2.0927681e-38
-1.4149889 -0.11599344 3.1796467 2.3509886e-38
-1.3960119 -0.11586523 3.1750789 2.0284116e-38
-1.5350164 -0.092453599 3.1612194 2.3509883e-38
-1.5142322 -0.0854927 3.1656651 2.3509886e-38
-1.4920421 -0.091841005 3.1648402 2.000572e-38
-1.4711729 -0.087699056 3.1729851 2.3509886e-38
-1.4529679 -0.088205799 3.1750107 2.2034754e-38
-1.4392512 -0.085321784 3.1788678 2.3509886e-38
-1.5345681 -0.077985317 3.1629431 2.3509886e-38
-1.5064707 -0.074629188 3.1618419 1.7977769e-38
-1.4925039 -0.07142213 3.1680284 2.0743647e-38
-1.4726635 -0.071570814 3.1745565 2.3509886e-38
-1.4516374 -0.068402112 3.1771998 2.2126948e-38
-1.4240965 -0.063256979 3.178791 2.0651818e-38
-1.4076415 -0.06498009 3.1797404 2.046815e-38
-1.5331743 -0.054424852 3.1658664 2.3509886e-38
-1.5134016 -0.053668439 3.1627452 1.7701544e-38
-1.4967147 -0.05287762 3.1692655 2.0467421e-38
-1.4746511 -0.050066471 3.1766515 2.3509886e-38
-1.4515786 -0.052144289 3.1789207 2.2035114e-38
-1.5453055 -0.039088994 3.1654768 2.3509884e-38
-1.5203326 -0.032707691 3.1636484 1.7516796e-38
-1.504925 -0.027767122 3.1672285 1.7423882e-38
-1.5802083 -0.0092097521 3.1627369 2.3509879e-38
-1.5695678 -0.0084173083 3.1646979 2.350988e-38
-1.5313401 -0.014201671 3.1671915 2.0374867e-38
-1.4950839 -0.0028703809 3.1784244 2.3509886e-38
-1.6465015 0.0022615194 3.1722336 1.7148375e-38
-1.6257688 0.0089097619 3.1770511 1.7056176e-38
-1.5896795 0.0063242316 3.1628375 2.3417682e-38
-1.5657382 0.0081071854 3.1672497 2.3418042e-38
-1.5539905 0.011201203 3.1656621 2.0190472e-38
-1.5285017 0.014903069 3.1671968 1.6779225e-38
-1.5170541 0.0089141726 3.1688092 1.6963253e-38
-1.4960778 0.0078818202 3.179472 2.3509886e-38
-1.780385 0.032600045 3.1609001 2.1022753e-38
-1.6534964 0.023415267 3.1731451 1.6779592e-38
-1.6273431 0.03323254 3.1692753 1.9638373e-38
-1.6006413 0.037986398 3.1645098 2.3141452e-38
-1.5890069 0.028026661 3.1654232 2.3325485e-38
-1.5675635 0.032247424 3.1669164 2.1112788e-38
-1.5512681 0.025424063 3.1717625 2.3509879e-38
-1.7818892 0.048874319 3.1624858 2.0653608e-38
-1.7716535 0.055098653 3.164993 2.1206421e-38
-1.7245008 0.04744035 3.1617203 1.5950547e-38
-1.6851449 0.056530297 3.1754689 1.8993005e-38
-1.6604911 0.044569075 3.1740565 1.6134587e-38
-1.6397583 0.051217318 3.178874 1.6133862e-38
-1.6026287 0.05949074 3.166605 2.2773388e-38
-1.5703325 0.049787819 3.1627135 1.6134224e-38
-1.5497578 0.047691673 3.1665516 1.6226055e-38
-1.4562283 0.054923236 3.1600318 2.0651815e-38
-1.8133622 0.077482343 3.1602044 1.9917122e-38
-1.7887617 0.064748764 3.1630821 2.0377743e-38
-1.7726563 0.065948188 3.1660502 2.0838361e-38
-1.7082348 0.070745766 3.1779222 2.1667398e-38
-1.6974978 0.071545362 3.1799009 2.1851791e-38
-1.6657372 0.060434401 3.1747403 1.5766156e-38
-1.6450044 0.067082644 3.1795578 1.5581415e-38
-1.5874131 0.068743497 3.170332 2.2865583e-38
-1.5712038 0.067244053 3.1730115 2.3141453e-38
-1.4541035 0.076571822 3.1625023 2.074437e-38
-1.7902659 0.081023037 3.1646676 2.0101156e-38
-1.7704145 0.080680728 3.1681192 2.0469577e-38
-1.7506053 0.091712236 3.1613622 1.5120439e-38
-1.7370826 0.090445817 3.1750896 2.0838358e-38
-1.7151076 0.086620212 3.1785183 2.1390813e-38
-1.5726945 0.083372355 3.174583 2.2864865e-38
-1.4470754 0.092239171 3.1646688 2.0836563e-38
-1.90626 0.11411053 3.1776624 1.7982091e-38
-1.838847 0.11928123 3.1604755 1.8719297e-38
-1.8137453 0.10112298 3.1628246 1.9456144e-38
-1.7922714 0.10272217 3.1667819 1.9824567e-38
-1.7727543 0.10599625 3.1705859 2.0008959e-38
-1.7551935 0.11094552 3.1742358 2.0193347e-38
-1.7385867 0.10672015 3.1766753 2.0561051e-38
-1.7074542 0.11724755 3.1726575 1.4660534e-38
-1.4454819 0.10847566 3.1665218 2.0652171e-38
-1.9494035 0.128355 3.1716962 1.7151974e-38
-1.918615 0.12972903 3.1772656 1.742964e-38
-1.8137941 0.12114698 3.1650925 1.9087002e-38
-1.794277 0.12442124 3.168896 1.936323e-38
-1.7723017 0.12059563 3.1723247 1.9640173e-38
-1.7481436 0.12239474 3.1767769 2.0009316e-38
-1.7230666 0.12978882 3.1709325 1.4291752e-38
-1.707517 0.13477492 3.1745458 1.4383945e-38
-1.6878977 0.13034254 3.1779418 1.4567619e-38
-1.646827 0.13198245 3.1670747 2.1206419e-38
-1.6361865 0.13277489 3.1690357 2.1114224e-38
-1.4468031 0.13230762 3.1689897 2.0651817e-38
-1.9504402 0.14941052 3.1739075 1.6692074e-38
-1.9260576 0.15122634 3.178401 1.6967945e-38
-1.8482611 0.14315969 3.1615348 1.7982451e-38
-1.7473595 0.15124482 3.1684589 1.3554909e-38
-1.7300613 0.1509425 3.171844 1.373858e-38
-1.7145118 0.15592861 3.1754572 1.3554906e-38
-1.4466668 0.1523419 3.1711495 2.0652174e-38
-1.9605919 0.17070597 3.1745436 1.6230738e-38
-1.9443369 0.17191654 3.1775391 1.623074e-38
-1.8492882 0.16402125 3.1637254 1.7520754e-38
-1.7577888 0.16544807 3.1679382 1.2909182e-38
-1.7353073 0.16680789 3.1725278 1.309393e-38
-1.711983 0.17428705 3.1779475 1.3093577e-38
-1.6989622 0.16091472 3.1790702 1.3646029e-38
-1.4608454 0.17569762 3.1726797 2.0376305e-38
-1.4499766 0.1745595 3.1733067 2.046814e-38
-1.9626161 0.19260669 3.1766775 1.5402058e-38
-1.9517794 0.19341373 3.1786745 1.5494254e-38
-1.7316234 0.18456179 3.1751807 1.2540038e-38
-1.6582656 0.19546521 3.1611342 1.2353846e-38
-1.4513862 0.19748946 3.1756713 2.0284109e-38
-1.9641342 0.2090323 3.1782777 1.4849963e-38
-1.661731 0.20594555 3.1615858 1.3648901e-38
-1.6445906 0.20564601 3.1649401 1.3001372e-38
-1.4408237 0.2118755 3.1779437 2.0559977e-38
-2.0868804 0.23848122 3.1600442 1.3006775e-38
-2.0752845 0.23107553 3.1612411 1.3190806e-38
-1.9656522 0.22545785 3.1798782 1.4480103e-38
-1.6252233 0.22151607 3.1704879 1.4015884e-38
-1.6103723 0.22241431 3.1735196 1.3924767e-38
-1.4412186 0.22649756 3.1794865 2.0284109e-38
-2.0889046 0.26038206 3.162178 1.2546872e-38
-1.528194 0.26388347 3.1645305 1.4750928e-38
-1.5129282 0.26877862 3.1680777 1.4659086e-38
-2.1025248 0.28968865 3.163115 1.1808955e-38
-2.0878224 0.28802705 3.1655109 1.1992985e-38
-2.0761917 0.29991901 3.1689079 1.1808596e-38
-2.0096533 0.28833556 3.1792901 1.2453244e-38
-1.4756532 0.29221606 3.1779842 1.3644582e-38
-2.1085825 0.31588298 3.1650276 0
-2.0939651 0.31513393 3.1675124 0
-2.0777099 0.3163445 3.1705081 0
-2.0560365 0.31795859 3.1745021 0
-2.0336039 0.31135991 3.1776962 0
-1.4468248 0.31299829 3.1601624 2.0007172e-38
-1.4306679 0.31130642 3.1610947 1.982313e-38
-1.393869 0.31055063 3.167434 1.1985432e-38
-1.3781936 0.3193711 3.171488 1.3645298e-38
-2.0959892 0.3370347 3.1696463 0
-2.0797338 0.33824521 3.172642 0
-2.0580606 0.33985925 3.176636 0
-1.4339476 0.33332464 3.1632326 1.9730578e-38
-1.36027 0.32701552 3.1758583 1.4106261e-38
-1.3434399 0.32672131 3.1791518 1.3828247e-38
0.22796993 0.33893877 3.1695297 1.9820969e-38
0.25395754 0.33621746 3.1710286 1.9084483e-38
-1.9827598 0.35071719 3.1614821 0
-1.4323683 0.34941539 3.1650689 1.9547625e-38
-1.3653741 0.34245145 3.1765234 1.447542e-38
0.12921683 0.34927982 3.1638327 2.0928761e-38
0.15311375 0.35200682 3.1657724 2.0558894e-38
0.17234072 0.35173658 3.167069 2.0281951e-38
0.18975049 0.35078505 3.1681669 2.0097556e-38
0.20870388 0.35664439 3.1701024 1.9637299e-38
0.22429645 0.35501164 3.1710019 1.9544743e-38
0.24508655 0.35283458 3.1722012 1.9268157e-38
0.26067919 0.35120177 3.1731007 1.9083048e-38
-1.9735273 0.36779118 3.1650465 1.2083736e-38
-1.9584247 0.37984014 3.1690717 1.2175937e-38
-1.9380717 0.37407303 3.1719947 1.2083744e-38
-1.9198426 0.37178916 3.1749399 1.2176287e-38
-1.4449754 0.36879787 3.1662807 1.9914976e-38
0.17904279 0.37543875 3.1700754 1.9913886e-38
0.19514346 0.37898225 3.1715658 1.982169e-38
0.21073604 0.37734944 3.1724653 1.9452546e-38
0.22632861 0.37571669 3.1733649 1.9452545e-38
0.2486819 0.37163281 3.1744673 1.9083404e-38
0.26790887 0.37136251 3.1757636 1.8806817e-38
-1.8370969 0.39388013 3.1633942 1.2452878e-38
-1.8095015 0.38510913 3.167249 1.2728392e-38
-1.7935408 0.3862977 3.1701903 1.2820588e-38
-1.7722596 0.38788259 3.1741121 1.2729105e-38
-1.7562987 0.38907123 3.1770535 1.2728758e-38
-1.6956049 0.3984977 3.1601901 1.2912776e-38
-1.4384019 0.39881539 3.1699562 1.973094e-38
0.20757067 0.39859858 3.1745281 1.9268155e-38
0.22836077 0.39642161 3.1757276 1.917596e-38
0.25105274 0.39578855 3.1772239 1.8899373e-38
0.26803923 0.39052343 3.1778297 1.853059e-38
-1.6723727 0.40559191 3.1650815 1.3004256e-38
-1.653428 0.40163869 3.167963 1.3004972e-38
-1.6323396 0.40320915 3.1718493 1.3279766e-38
