# .PCD v0.7 - Point Cloud Data file format
VERSION 0.7
FIELDS x y z rgb
SIZE 4 4 4 4
TYPE F F F F
COUNT 1 1 1 1
WIDTH 1204
HEIGHT 1
VIEWPOINT 0 0 0 1 0 0 0
POINTS 1204
DATA ascii
0.39395925 0.31063733 0.51073349 0
0.40475461 0.30046892 0.50168276 0
0.42967558 0.30030918 0.51594412 0
0.38950199 0.33725148 0.51308173 0
0.40074977 0.33539712 0.5002358 0
0.43160477 0.32848853 0.50834125 0
0.35825723 0.3522414 0.51021028 0
0.37165946 0.35271525 0.5052886 0
0.39441997 0.3476142 0.51053703 0
0.40064201 0.35640585 0.50469065 0
0.4314149 0.350784 0.51137704 0
0.37835824 0.37164301 0.505849 0
0.3956309 0.37035477 0.51483583 0
0.41139883 0.37059575 0.51050055 0
0.41320664 0.38214725 0.50237381 0
-0.24655354 -0.12145001 0.52050006 0
0.37348983 -0.13489561 0.53151774 0
0.38656759 -0.13026325 0.52816701 1.3636655e-38
-0.24472582 -0.1128672 0.52050006 0
-0.047032882 -0.10468437 0.52812821 0
-0.038338598 -0.10260137 0.52166677 0
0.047213744 -0.10219621 0.53116673 0
0.37600869 -0.10962467 0.53076434 1.3640625e-38
0.38823122 -0.11343525 0.52945745 1.4191279e-38
0.43058974 -0.10975657 0.53350353 1.2444245e-38
-0.04661642 -0.097006731 0.53439993 0
-0.03094149 -0.095543303 0.52410829 0
-0.01694167 -0.090625882 0.52175003 0
0.035062842 -0.084450737 0.52557582 0
0.045829091 -0.090655744 0.53027582 0
0.37342116 -0.087949112 0.52798808 1.3365838e-38
0.38680851 -0.093196966 0.52906722 1.5481292e-38
0.42956823 -0.080913827 0.53170073 1.3917572e-38
0.03877018 -0.075649127 0.53900003 0
0.041291818 -0.075333923 0.53900003 0
0.37250757 -0.066571921 0.52917802 1.4010129e-38
0.38687718 -0.074442983 0.52931398 1.5665683e-38
0.42947826 -0.061653137 0.5300895 1.4470384e-38
0.37493694 -0.050273724 0.53290343 1.5666761e-38
0.38807946 -0.051908851 0.52711803 1.6218493e-38
0.43017951 -0.041042633 0.53013808 1.4930998e-38
0.3758831 -0.033578001 0.53473449 1.6219211e-38
0.38697389 -0.031506382 0.5271188 1.61263e-38
0.43046182 -0.021612532 0.5295378 1.502283e-38
0.36900139 -0.0059907362 0.53668785 1.4654775e-38
0.38657632 -0.012258441 0.52807349 1.6310329e-38
0.43009996 -0.0077400282 0.53180707 1.5022826e-38
0.36863992 0.013352029 0.53590494 1.6223551e-38
0.387528 0.0092376359 0.52689773 1.6220303e-38
0.42972112 0.0098059103 0.53122014 1.5576366e-38
0.36946991 0.033557527 0.53436285 1.7794129e-38
0.38586926 0.026667763 0.52721548 1.8712842e-38
0.37439859 0.051658906 0.53136504 1.982135e-38
0.38716993 0.045438122 0.52618766 1.9635885e-38
0.42971969 0.049857952 0.52672017 1.8623164e-38
0.37065697 0.074988194 0.5340305 1.7609015e-38
0.38688663 0.065567791 0.52924037 2.0004665e-38
0.42886311 0.079124153 0.5243125 1.8622447e-38
0.37360337 0.095505118 0.53669369 1.8069627e-38
0.38742083 0.086385623 0.53036731 1.8898322e-38
0.4280681 0.099739075 0.52249491 1.825366e-38
0.37345165 0.11490963 0.53473425 1.81611e-38
0.38780335 0.10653348 0.52851313 1.8621375e-38
0.42764038 0.11992253 0.52144647 1.8068909e-38
0.37474722 0.13268629 0.53284758 1.7976709e-38
0.3878541 0.12736556 0.52790904 1.8067839e-38
0.42725927 0.13999932 0.52122539 1.7146951e-38
0.37183434 0.15540385 0.53234792 1.5672182e-38
0.38709646 0.14615373 0.5289374 1.6684905e-38
0.42178392 0.14036277 0.53921157 1.6869639e-38
0.37573299 0.17217526 0.53702104 1.6315748e-38
0.38866067 0.16736206 0.528373 1.5670752e-38
0.42414695 0.16465643 0.52829146 1.6593418e-38
0.37516832 0.19005059 0.53499568 1.5855132e-38
0.38866222 0.18621296 0.52616793 1.5486e-38
0.4232316 0.18371221 0.53315055 1.5763289e-38
0.37468421 0.21690382 0.53488988 1.5302312e-38
0.38706979 0.20591328 0.52736193 1.5301246e-38
0.42414987 0.20217441 0.52932048 1.5486706e-38
0.37474012 0.23689139 0.53450328 0
0.38463876 0.22760014 0.52927476 1.3458411e-38
0.42165413 0.22194821 0.53858107 1.521048e-38
0.37568983 0.25665528 0.53395379 0
0.38582554 0.24706507 0.52816606 0
0.42235756 0.24298318 0.53784919 0
0.37818876 0.2774829 0.53106427 0
0.38653296 0.26734039 0.52918625 0
0.4236474 0.27056214 0.53356886 0
0.37663823 0.29376471 0.53587312 0
0.38649318 0.29023841 0.5310871 0
0.42511609 0.29370439 0.52968043 0
0.37846369 0.31323096 0.53417218 0
0.38665995 0.30726218 0.52805787 0
0.42628634 0.30546302 0.52985901 0
0.37921101 0.33906174 0.53471708 0
0.38759422 0.32787848 0.53002989 0
0.42641276 0.32309678 0.5277819 0
0.35207158 0.34829885 0.53359818 0
0.36032951 0.35241657 0.52155352 0
0.38801974 0.35545015 0.52966642 0
0.40058827 0.35876024 0.52196437 0
0.42407537 0.34309381 0.53560549 0
0.35658756 0.37057063 0.53889966 0
0.36698154 0.37062314 0.5220086 0
0.38795269 0.377581 0.53409672 0
0.42381236 0.3600035 0.53333414 0
0.38459098 -0.14355367 0.55813265 1.2802926e-38
0.35644642 -0.12626795 0.55712491 0
0.37173948 -0.13056952 0.54655361 1.3085287e-38
0.3828969 -0.12952709 0.54803163 1.2714708e-38
0.42483965 -0.13123627 0.55096185 0
0.35753903 -0.10981239 0.55644894 1.1800316e-38
0.37163636 -0.11105619 0.55044651 1.4100161e-38
0.38284403 -0.10673736 0.5467515 1.4190547e-38
0.42421335 -0.10983554 0.55230927 1.2075464e-38
-0.26682624 -0.083346032 0.55492318 0
-0.043802109 -0.093478605 0.54040003 0
0.037894741 -0.080526315 0.54000002 0
0.053499766 -0.085176885 0.5445407 0
0.063798025 -0.086917631 0.55512506 0
0.35724151 -0.092834309 0.55700624 1.2444964e-38
0.36979538 -0.09177991 0.55041987 1.4560779e-38
0.38293859 -0.090014718 0.54562771 1.4835922e-38
-0.26578858 -0.070756182 0.55666667 0
-0.25841442 -0.062899299 0.55500001 0
0.037705269 -0.076357901 0.54000002 0
0.051490586 -0.074612968 0.55131584 0
0.063266449 -0.075123526 0.55706674 0
0.35789588 -0.066067018 0.55557114 1.318217e-38
0.3731935 -0.074028328 0.55072874 1.5573487e-38
0.38240698 -0.069705464 0.54432648 1.5020308e-38
0.42346799 -0.069974795 0.55101931 1.3733901e-38
-0.26285002 -0.058738604 0.55800003 0
-0.25811133 -0.053767178 0.55728579 0
0.35838586 -0.045954131 0.55530083 1.3641706e-38
0.37226135 -0.054341335 0.5504269 1.5941907e-38
0.3825593 -0.049493708 0.54378092 1.5296898e-38
0.42353356 -0.047906552 0.55261511 1.4194156e-38
0.35899451 -0.025831372 0.5543431 1.3826096e-38
0.37221211 -0.033872947 0.55181307 1.6678748e-38
0.38424391 -0.029325262 0.54302657 1.5572403e-38
0.42416018 -0.031024285 0.54832625 1.4377827e-38
0.35934493 -0.0053062513 0.55429196 1.4102317e-38
0.37383333 -0.013426607 0.55035704 1.6586912e-38
0.38390312 -0.0086115096 0.54255599 1.5665317e-38
0.42332986 -0.018020585 0.55023855 1.4470021e-38
0.35954469 0.01373291 0.55355847 1.5856213e-38
0.37345582 0.0064399145 0.55080426 1.7232284e-38
0.38515574 0.012546534 0.54195303 1.6405066e-38
0.42354542 0.010367621 0.54801071 1.4838802e-38
0.3587302 0.036581375 0.55410421 1.7794132e-38
0.37324795 0.02559343 0.54937029 1.9542602e-38
0.38389805 0.030307155 0.54071462 1.8528455e-38
0.35917237 0.055656821 0.5523774 1.7609739e-38
0.37154528 0.046937477 0.55051744 2.0004303e-38
0.385203 0.049053516 0.54017591 1.9081988e-38
0.42267236 0.040951278 0.54557389 1.5668564e-38
0.37186044 0.068012387 0.55064374 1.9451487e-38
0.42267251 0.060760304 0.54591238 1.5761481e-38
0.37196702 0.088314831 0.55090624 1.8344781e-38
0.4219504 0.080078043 0.54421216 1.6038427e-38
0.37227914 0.10820176 0.5497945 1.8252225e-38
0.41816315 0.10753903 0.55495441 1.354733e-38
0.42115507 0.10184655 0.54151058 1.6315743e-38
0.37268823 0.12832692 0.54889584 1.751502e-38
0.41933334 0.12940179 0.55101019 1.2534618e-38
0.42098594 0.12118755 0.54045236 1.6408656e-38
0.37177768 0.14905615 0.55020672 1.6316117e-38
0.38043079 0.15056175 0.5468629 1.53938e-38
0.41852883 0.14338607 0.54869318 1.3732802e-38
0.37090179 0.16794257 0.55239201 1.5117574e-38
0.38090169 0.17087173 0.54543507 1.4748074e-38
0.42049327 0.16109142 0.54246902 1.6039152e-38
0.36984214 0.18767962 0.55152357 1.4472564e-38
0.38090143 0.19093244 0.54449266 1.4195259e-38
0.25427276 0.21362615 0.55782354 0
0.3720586 0.20966373 0.54960549 1.3827198e-38
0.38129076 0.21091466 0.54366082 1.3734287e-38
0.41590664 0.2030744 0.55839336 1.2256957e-38
0.25282723 0.2215316 0.5575 0
0.37104505 0.23076288 0.55127382 0
0.38166237 0.23079833 0.54312092 0
0.41707972 0.22249275 0.55573678 1.2903053e-38
0.3708151 0.25059199 0.55182946 0
0.38156107 0.25080836 0.54311585 0
0.41837925 0.24233401 0.55121756 0
0.37175235 0.26641747 0.5520401 0
0.38203546 0.26780456 0.54428375 0
0.41627729 0.26299915 0.55670476 0
0.42098427 0.26795185 0.54667675 0
0.373292 0.28769469 0.55018222 0
0.4178791 0.28491545 0.55764091 0
0.4224053 0.28389692 0.54089361 0
0.37161463 0.31095603 0.5537194 0
0.41766113 0.30417797 0.55610669 0
0.37303135 0.33246216 0.55142629 0
0.41809306 0.32465667 0.5551964 0
0.33861297 0.35010052 0.55193973 0
0.34695637 0.34722143 0.55080199 0
0.37232745 0.3504191 0.54988098 0
0.39126077 0.35488188 0.55413085 0
0.41781241 0.35185534 0.55460227 0
0.34647354 0.37073776 0.5544219 0
0.36817381 0.3759625 0.54526901 0
0.39136332 0.37557477 0.55345589 0
0.36046109 -0.14150965 0.57821023 1.5566608e-38
0.18670699 -0.12286234 0.57757938 0
0.35359108 -0.1303162 0.57163167 1.3085643e-38
0.3673276 -0.13088286 0.56659025 1.2716147e-38
0.41834363 -0.12907381 0.57404804 0
0.35341659 -0.10691308 0.5726192 1.410124e-38
0.36446673 -0.11324994 0.56870097 1.474373e-38
0.4178983 -0.1178064 0.57201076 0
0.034699783 -0.081794083 0.56512499 0
0.072587729 -0.083504878 0.56666666 0
0.35413867 -0.087790571 0.57143986 1.4745886e-38
0.36453095 -0.093496658 0.56881493 1.6125575e-38
0.41731077 -0.098146982 0.57159483 1.2260214e-38
-0.27126473 -0.06718909 0.56044447 1.5483458e-38
0.019300003 -0.07720001 0.57900006 0
0.029074026 -0.076520883 0.57129025 0
0.046076924 -0.071352765 0.56430775 0
0.072411954 -0.076292485 0.5705238 0
0.35271487 -0.06725987 0.57545799 1.5114309e-38
0.36392993 -0.071346298 0.56655902 1.6678387e-38
0.4159236 -0.072987817 0.57085365 1.2997417e-38
-0.26534429 -0.049336508 0.56374186 1.2167301e-38
-0.25730652 -0.044520877 0.56150001 0
0.35293221 -0.046944302 0.57513952 1.548273e-38
0.36430982 -0.052475054 0.56736803 1.6678386e-38
0.41750243 -0.057569042 0.570759 1.3549508e-38
-0.26450947 -0.032494627 0.56966674 1.189072e-38
-0.25461763 -0.030074885 0.56447375 0
0.35367641 -0.027163148 0.57430595 1.5575282e-38
0.36405396 -0.030159969 0.56856358 1.621813e-38
0.41722405 -0.038613051 0.56864154 1.3733536e-38
0.35115322 -0.0031187497 0.57556152 1.4746965e-38
0.36436859 -0.010620872 0.56741929 1.6770939e-38
0.41677332 -0.018081784 0.5687682 1.4009403e-38
0.26816845 0.010157896 0.57900006 1.2165516e-38
0.35316473 0.012780894 0.57550114 1.7513201e-38
0.36435741 0.0087853074 0.56810808 1.7233729e-38
0.41601881 0.0027372837 0.56830806 1.4101596e-38
0.26816842 0.031235531 0.57900012 1.2165871e-38
0.351491 0.030053934 0.57373208 1.7056199e-38
0.3646636 0.028870724 0.56706476 1.9450767e-38
0.41602364 0.022121117 0.56593478 1.428563e-38
0.26738104 0.050634563 0.57730001 1.2257351e-38
0.35307923 0.048779305 0.57729584 1.917562e-38
0.36477005 0.048023734 0.56957412 1.9173824e-38
0.4164384 0.042069823 0.56572425 1.4377461e-38
0.26499668 0.071884573 0.57630008 1.2442828e-38
0.35559928 0.068441227 0.5710867 1.926781e-38
0.36480686 0.070052572 0.56782442 1.8528455e-38
0.41223747 0.065192491 0.57367843 1.3640972e-38
0.26285058 0.090688825 0.57531428 1.2073679e-38
0.3534838 0.090097621 0.57470155 1.8898669e-38
0.36577725 0.087792814 0.56899637 1.7330273e-38
0.41638851 0.083350033 0.56566679 1.3732449e-38
0.26199767 0.11013909 0.57405257 1.1797446e-38
0.35603118 0.11148488 0.57519758 1.9082702e-38
0.36643746 0.10795625 0.56797844 1.6869298e-38
0.41566452 0.10329039 0.56651574 1.3270755e-38
0.25897846 0.13327122 0.57219237 0
0.26121202 0.12627453 0.57028574 1.2997808e-38
0.35433269 0.13157755 0.57500511 1.6593424e-38
0.36560822 0.12691477 0.56783772 1.7421745e-38
0.4162195 0.12276833 0.56365466 1.2902325e-38
0.25773162 0.15031134 0.57121986 1.1799623e-38
0.26119637 0.14995615 0.56609088 1.3644988e-38
0.35545895 0.15125862 0.57542849 1.6868929e-38
0.36353496 0.14617023 0.56869018 1.6776017e-38
0.41596964 0.14238432 0.56223005 1.253354e-38
0.256295 0.17048891 0.56951779 1.2076574e-38
0.26027772 0.17021808 0.56410009 1.30911e-38
0.35393748 0.17008719 0.57233286 1.5026094e-38
0.36338729 0.16822782 0.56953186 1.622212e-38
0.41604251 0.16314971 0.56088078 1.2072202e-38
0.25543979 0.19032942 0.56790006 0
0.35590714 0.19137715 0.57350469 1.474915e-38
0.36459324 0.18585169 0.56676626 1.4840268e-38
0.41341627 0.18326785 0.56916803 0
0.25245947 0.2092482 0.56960803 0
0.35700348 0.21129155 0.57149202 1.474915e-38
0.36432844 0.20687433 0.56681532 1.5116853e-38
0.41131163 0.21018621 0.57322371 0
0.2506817 0.22397035 0.57181823 0
0.35534328 0.22819072 0.57333171 0
0.36455458 0.22739822 0.56595069 1.3271127e-38
0.41286755 0.2268465 0.57257044 0
0.35691819 0.25103673 0.57405746 0
0.36419395 0.24668746 0.56822681 0
0.41312671 0.2445617 0.56983745 0
0.35485175 0.27138418 0.57161295 0
0.36562496 0.26783121 0.56915545 0
0.41050473 0.26556146 0.57675666 0
0.35862869 0.28192937 0.57086289 0
0.36502463 0.28880349 0.56991076 0
0.41020939 0.28517237 0.57604307 0
0.35918564 0.31020325 0.57518309 0
0.36398357 0.30933785 0.56789637 0
0.41030431 0.30526155 0.57548648 0
0.35896501 0.33877286 0.5790785 0
0.36381936 0.33334613 0.56994486 0
0.41133088 0.32566026 0.5736587 0
0.32978043 0.34903726 0.57229596 0
0.3582285 0.34865129 0.57791173 0
0.36109531 0.34647998 0.56421697 0
0.38619816 0.35133323 0.57000673 0
0.41164893 0.35011792 0.57463235 0
0.33206004 0.36938375 0.57114923 0
0.35252079 0.36858997 0.56804681 0
0.37569553 0.36739028 0.57223225 0
0.39497969 0.37484187 0.56006491 0
0.40323246 0.36704233 0.56800103 0
0.35739815 -0.14650753 0.58103931 1.5380786e-38
0.15988244 -0.12255883 0.59491807 0
0.16957133 -0.12373445 0.5994364 0
0.33741856 -0.13000572 0.59428364 0
0.35017797 -0.13168132 0.58876836 1.2624308e-38
0.36241832 -0.13260329 0.58477151 1.2897646e-38
0.41106242 -0.13022135 0.59301388 0
0.15671057 -0.11428937 0.59720653 0
0.17573462 -0.11999316 0.58854765 0
0.27280003 -0.10023335 0.58900005 0
0.33758301 -0.10540809 0.59302616 1.2260574e-38
0.35193697 -0.11410073 0.59120113 1.4375306e-38
0.36262557 -0.10778161 0.58223319 1.4467134e-38
0.41192773 -0.11769351 0.59033632 0
-0.0062471405 -0.08458475 0.59652179 0
0.010158116 -0.082479902 0.58587503 0
0.021386845 -0.081474565 0.58050001 0
0.27151698 -0.08971858 0.59129095 0
0.33793604 -0.082653433 0.59418911 1.3365478e-38
0.35159606 -0.093663454 0.59143317 1.5572764e-38
0.36222881 -0.087279461 0.58165056 1.5112145e-38
0.41145277 -0.097702608 0.58731645 0
-0.0027277197 -0.077844918 0.59800005 0
0.0099617299 -0.077388249 0.58937037 0
0.26967359 -0.069903992 0.59075797 0
0.33779493 -0.064132139 0.59026641 1.2445327e-38
0.3497389 -0.071852662 0.59213781 1.5941903e-38
0.36195475 -0.06739939 0.58030933 1.5664596e-38
0.40996584 -0.076867402 0.59070909 1.216766e-38
0.26787236 -0.049828045 0.58939058 1.1981483e-38
0.33836704 -0.043765597 0.58981919 1.2629714e-38
0.35073513 -0.050566986 0.58971059 1.5757154e-38
0.41062868 -0.055997342 0.58881682 1.2904863e-38
0.26708621 -0.030107426 0.58827549 1.2257708e-38
0.33934322 -0.02330894 0.5891279 1.2813386e-38
0.35020652 -0.030621728 0.59047538 1.6402161e-38
0.40988153 -0.036346823 0.58818954 1.3181086e-38
0.26586655 -0.010308774 0.58747506 1.2257348e-38
0.33965218 -0.0039444417 0.58933312 1.2997415e-38
0.35055774 -0.012051169 0.58991295 1.677058e-38
0.40947437 -0.016930267 0.58729154 1.3364754e-38
0.25918844 0.018198948 0.59620005 1.2624689e-38
0.26507512 0.010400495 0.58694887 1.225735e-38
0.33890352 0.014188975 0.5882014 1.5212643e-38
0.35133958 0.0074784546 0.58965045 1.640433e-38
0.40839374 0.0033096895 0.58670038 1.3548425e-38
0.25974387 0.030398248 0.597 1.2441382e-38
0.26373258 0.030297361 0.58761209 1.225735e-38
0.33982596 0.031135449 0.58798558 1.5675793e-38
0.34956288 0.027083967 0.59021753 1.8529168e-38
0.40695608 0.02329959 0.5915463 1.3456947e-38
0.25844699 0.052442987 0.59686375 1.2441023e-38
0.26294383 0.049310539 0.58709532 1.2257711e-38
0.33981842 0.057092063 0.58713377 1.6504832e-38
0.35011894 0.049273364 0.59068578 2.0096135e-38
0.4083536 0.044753779 0.58779204 1.3456947e-38
0.25846791 0.070171617 0.59510726 1.2441382e-38
0.26259068 0.068765409 0.58535993 1.2349545e-38
0.3501538 0.068157271 0.5898028 1.9081986e-38
0.40788454 0.066607393 0.58702278 1.3364388e-38
0.25802574 0.09022785 0.59382933 1.2165157e-38
0.2612423 0.089267083 0.58487993 1.189001e-38
0.33973804 0.096931487 0.58540577 1.6043131e-38
0.350712 0.086544372 0.59025085 1.8528453e-38
0.40984899 0.084756434 0.58315229 1.3087441e-38
0.25760731 0.11079787 0.59053975 0
0.26058686 0.10372281 0.58249998 1.2072958e-38
0.35016432 0.10849763 0.58934736 1.7975998e-38
0.40935671 0.10349306 0.58276528 1.2810851e-38
0.25659472 0.13009048 0.5899266 0
0.35016191 0.12817883 0.58975494 1.7698688e-38
0.40933853 0.12357973 0.58259636 1.2349513e-38
0.25510234 0.14953916 0.59042627 0
0.33469266 0.15247864 0.59745139 1.456835e-38
0.34819514 0.14765677 0.59102392 1.6777094e-38
0.3600961 0.15276554 0.58517063 1.631432e-38
0.40648136 0.14503098 0.59033471 0
0.25369427 0.16978182 0.58960658 0
0.34698161 0.16868575 0.58976561 1.5578906e-38
0.36010039 0.17312743 0.58424234 1.4839902e-38
0.40628564 0.16742602 0.58951998 0
0.25203928 0.18938473 0.58983332 0
0.34779492 0.18904293 0.59099686 1.5209765e-38
0.36021867 0.19303583 0.58282739 1.4102703e-38
0.40604439 0.18861206 0.59257948 0
0.24972169 0.21044309 0.59224075 0
0.34934816 0.20752567 0.58953214 1.5301602e-38
0.36046305 0.21298593 0.58163291 1.3919028e-38
0.405945 0.20642942 0.59124416 0
0.2481645 0.2285036 0.59040481 0
0.34975114 0.22826684 0.59065402 0
0.36046425 0.23265071 0.5814817 0
0.40407097 0.22720781 0.59839946 0
0.34996524 0.24809173 0.5911231 0
0.40439767 0.24709094 0.59745574 0
0.35141701 0.26755089 0.59224695 0
0.36309686 0.27163178 0.58006966 0
0.4044441 0.26660854 0.59712762 0
0.35311478 0.28536397 0.58985358 0
0.36435658 0.28493762 0.58019501 0
0.40510795 0.28589112 0.59523404 0
0.35223582 0.30660906 0.58903301 0
0.40533659 0.30762419 0.59073633 0
0.30536363 0.33877966 0.59994841 0
0.35358784 0.32520661 0.5863626 0
0.40706581 0.32560307 0.58932799 0
0.31496 0.34530792 0.58437192 0
0.32017225 0.34654897 0.59095943 0
0.34883007 0.34376764 0.59162205 0
0.37508547 0.34931242 0.59551716 0
0.38682243 0.34902436 0.58412093 0
0.40551504 0.35276154 0.59033614 0
0.29595312 0.36399478 0.59839326 0
0.31633249 0.36727858 0.58577073 0
0.33093834 0.36834022 0.59274149 0
0.34249195 0.36938471 0.58169335 0
0.3704578 0.36826062 0.59421182 0
0.38335401 0.37261391 0.5812484 0
0.33524334 -0.14621888 0.61421609 1.4645025e-38
0.14580567 -0.12323636 0.60546571 0
0.16148321 -0.12378557 0.60277927 0
0.32998833 -0.13309279 0.61366427 1.1797432e-38
0.34478846 -0.13216974 0.60715556 1.4281302e-38
0.39529669 -0.13209635 0.61511922 0
0.4043642 -0.12852943 0.6121496 0
0.14320873 -0.11533087 0.60253954 0
0.26522654 -0.10148005 0.61212504 0
0.33137807 -0.11234271 0.61280626 1.3364398e-38
0.34485978 -0.11062352 0.60456902 1.6033019e-38
0.40503535 -0.11523192 0.61161911 0
-0.011194387 -0.081692643 0.60159999 0
0.26565355 -0.089735076 0.60782278 0
0.33302715 -0.093939543 0.61358654 1.4560777e-38
0.34417892 -0.088243365 0.60960984 1.6309604e-38
0.40391606 -0.095002532 0.61119944 0
-0.0094959065 -0.079122812 0.60133338 0
0.25957459 -0.064885966 0.61650002 0
0.26380369 -0.070108846 0.60717881 0
0.33442459 -0.073153473 0.61292905 1.5573845e-38
0.34432027 -0.068337053 0.60882103 1.6678382e-38
0.40369979 -0.076046571 0.61025822 0
0.25880384 -0.049025115 0.61756253 0
0.26265618 -0.050405622 0.60701853 1.1980761e-38
0.33385691 -0.050743904 0.61219692 1.539053e-38
0.34391165 -0.050779168 0.60809326 1.6309602e-38
0.4041799 -0.055985846 0.60839343 0
0.25805777 -0.029542545 0.61546439 1.2164432e-38
0.26202747 -0.030515414 0.60587245 1.2257345e-38
0.33302614 -0.031464726 0.61221021 1.4837719e-38
0.3434428 -0.029846875 0.60911345 1.6309602e-38
0.39905566 -0.022982799 0.61941892 0
0.40335116 -0.035121195 0.60800248 0
0.25769082 -0.0091763157 0.61364287 1.2349184e-38
0.26145524 -0.0096122818 0.60374069 1.2441382e-38
0.33421144 -0.013243677 0.61093569 1.502211e-38
0.34412116 -0.010097656 0.60904753 1.6401798e-38
0.40349603 -0.015808485 0.60805374 0
0.077935092 0.017319299 0.61700004 1.2536096e-38
0.087473832 0.017711259 0.61191672 0
0.25729707 0.010024052 0.61241668 1.2441016e-38
0.26099882 0.0068464451 0.60310531 1.2349181e-38
0.3315568 0.0069151684 0.61372036 1.520686e-38
0.34431744 0.0097782537 0.6079337 1.7325203e-38
0.40266681 0.0055909306 0.6077283 1.216729e-38
0.078218669 0.025550399 0.61845458 0
0.090302646 0.029463613 0.61336958 0
0.10166667 0.020333335 0.61000001 0
0.25687495 0.030268647 0.61100018 1.2441019e-38
0.26043335 0.028463414 0.60100007 1.2257708e-38
0.33312017 0.027709922 0.61295509 1.686747e-38
0.34497103 0.029845335 0.60710883 1.8989789e-38
0.40227452 0.026371233 0.60807627 1.2719742e-38
0.091629729 0.049933285 0.6170525 0
0.2556923 0.050307088 0.61100006 1.2533575e-38
0.33449781 0.047810428 0.61331409 1.7697231e-38
0.34533873 0.049666267 0.60597181 1.9726633e-38
0.40235728 0.045333996 0.6049704 1.2811937e-38
0.095099516 0.062830828 0.61900008 0
0.25458634 0.070138082 0.60881364 1.2441379e-38
0.33429083 0.067669295 0.61211717 1.7697597e-38
0.34290585 0.068148427 0.61018443 1.7882729e-38
0.40259761 0.065823592 0.60248989 1.271974e-38
0.25339702 0.089979075 0.60874587 1.2072601e-38
0.33439311 0.087995872 0.61115265 1.7697961e-38
0.34513512 0.094377019 0.61230564 1.8158948e-38
0.40286478 0.085938267 0.60306984 1.2442432e-38
0.25213483 0.10967698 0.60887933 0
0.33364919 0.10786416 0.61164182 1.7329541e-38
0.34258759 0.10979212 0.60619819 1.76065e-38
0.39703518 0.10581247 0.61990875 0
0.40302339 0.10494353 0.60178196 1.2165482e-38
0.25134039 0.12996283 0.60981047 0
0.33358943 0.1292965 0.61083913 1.5947327e-38
0.34405309 0.13085961 0.60646725 1.7790161e-38
0.39903957 0.12367723 0.61455798 0
0.40292928 0.12593578 0.60147589 0
0.24989012 0.15035819 0.60986882 0
0.33401039 0.14756557 0.61191881 1.6961112e-38
0.34288663 0.14770822 0.60499144 1.6223204e-38
0.3985121 0.14014091 0.61189264 0
0.40107977 0.15220496 0.60841483 0
0.24887998 0.16983208 0.60911477 0
0.33337456 0.16883799 0.61011517 1.5025731e-38
0.34256428 0.16862859 0.6049338 1.6314316e-38
0.39681807 0.16786647 0.61993182 0
0.40174985 0.16767663 0.60393322 0
0.2476363 0.1902754 0.60898364 0
0.33549744 0.18812107 0.61008811 1.5486353e-38
0.34322447 0.18897834 0.60510635 1.5301246e-38
0.39743105 0.18741632 0.61873943 0
0.24557649 0.20934978 0.60903776 0
0.33461985 0.20699339 0.61092639 1.4564752e-38
0.34367594 0.21022961 0.60817587 1.5024302e-38
0.39741284 0.20764574 0.61911726 0
0.24421082 0.23013061 0.60858637 0
0.33462173 0.22698246 0.61039317 0
0.34409934 0.22959903 0.6076625 0
0.39763671 0.22745275 0.61831594 0
0.24245334 0.24192919 0.61087501 0
0.33249789 0.24816827 0.61244375 0
0.34403628 0.25164893 0.60730243 0
0.39771092 0.24682653 0.61675131 0
0.33492014 0.26436478 0.61259294 0
0.3444128 0.27235168 0.60914928 0
0.39946553 0.26530015 0.61123848 0
0.33493054 0.28232607 0.61099136 0
0.34627438 0.28996176 0.60978132 0
0.39824378 0.28806359 0.61635888 0
0.40346012 0.29119974 0.6046949 0
0.33605155 0.30371937 0.61225998 0
0.34465301 0.31165621 0.60788339 0
0.39889258 0.3094078 0.61599422 0
0.40351787 0.30675358 0.60229909 0
0.29167709 0.33886451 0.61654019 0
0.33502784 0.32528803 0.61263621 0
0.34524122 0.32837594 0.60656136 0
0.39907977 0.32923952 0.61420387 0
0.2978754 0.35089874 0.61097258 0
0.30880812 0.34526622 0.61043465 0
0.34227389 0.34704232 0.6080845 0
0.36935613 0.34744224 0.6193518 0
0.39816746 0.34785241 0.61289632 0
0.29059392 0.36230713 0.61026466 0
0.30909342 0.36331743 0.60493207 0
0.32579228 0.3650426 0.61307591 0
0.35154498 0.36792171 0.606426 0
0.36952293 0.36725289 0.61650759 0
0.31787467 -0.14462218 0.63725519 1.2158638e-38
0.3241933 -0.14390336 0.63253748 1.3263535e-38
0.31072226 -0.13353206 0.63084561 0
0.32990581 -0.13171028 0.63211912 1.3821766e-38
0.34090447 -0.13140476 0.62363619 1.3636651e-38
0.39757082 -0.12874994 0.63398319 0
0.25803512 -0.10121755 0.634 0
0.26214418 -0.10170265 0.62783343 0
0.31128949 -0.11050843 0.63250816 0
0.32962325 -0.11156704 0.63037872 1.5020309e-38
0.34139138 -0.1055024 0.62245542 1.5203973e-38
0.39825222 -0.11432958 0.63160425 0
0.25797746 -0.089425564 0.63282049 0
0.26199532 -0.09112864 0.62340003 0
0.31399247 -0.090620555 0.63022637 1.1800676e-38
0.32924008 -0.090551861 0.63103122 1.6217406e-38
0.39804071 -0.094549119 0.63016111 0
0.25704449 -0.069615252 0.63133961 0
0.26157048 -0.073983043 0.62166679 0
0.31681055 -0.067437463 0.63072145 1.2628995e-38
0.32792902 -0.069857761 0.62976658 1.6217769e-38
0.3974098 -0.073448554 0.62917018 0
0.25569281 -0.050285317 0.63070387 0
0.31825888 -0.049955647 0.62866962 1.2813026e-38
0.32932925 -0.050766286 0.62814367 1.6309962e-38
0.39632741 -0.05023345 0.63152671 0
0.25466326 -0.029745726 0.62979603 0
0.31916165 -0.030044723 0.62844765 1.3089249e-38
0.32935965 -0.030688394 0.62978899 1.6954606e-38
0.39710546 -0.034599654 0.62716472 0
0.11673496 -0.0071421107 0.63836044 0
0.12952147 -0.007500296 0.63429648 0
0.14957744 -0.0065797754 0.62782753 0
0.16151686 -0.0073227184 0.62314022 0
0.25309896 -0.010589949 0.63038468 0
0.31342399 -0.0029916875 0.63150454 0
0.32844672 -0.011794126 0.62949914 1.6678741e-38
0.39740387 -0.012897499 0.62728864 0
0.039129388 0.013417106 0.63725001 0
0.049557529 0.014774729 0.63407141 0
0.067045555 0.016025573 0.62511539 0
0.13994074 0.002393493 0.63131917 0
0.14899597 0.013626408 0.63183159 0
0.16232096 0.018530939 0.62455547 0
0.25215054 0.010243658 0.62992316 1.1887122e-38
0.31485206 0.01229771 0.63142473 1.1800673e-38
0.32823676 0.0083609987 0.63166034 1.6309958e-38
0.39676085 0.0064117312 0.62597901 0
0.052638724 0.026866468 0.63375551 0
0.069019698 0.030157147 0.62726915 0
0.080811404 0.038223684 0.6225 0
0.14993867 0.032989956 0.63406569 0
0.16369684 0.037023261 0.62901777 0
0.25129542 0.029412394 0.62913734 1.2256265e-38
0.30952883 0.039758012 0.63897926 0
0.32745069 0.030506838 0.63112926 1.5943341e-38
0.39645544 0.02604451 0.62506729 0
0.058157019 0.0425 0.63750005 0
0.07086657 0.050009321 0.63248283 0
0.083410449 0.051164225 0.6216957 0
0.16409291 0.056860004 0.63202596 0
0.24986704 0.049800437 0.62821817 1.2532856e-38
0.3106679 0.059867978 0.63915831 0
0.32767057 0.05016296 0.63151431 1.6034817e-38
0.39652923 0.046824325 0.62477195 0
0.073320441 0.068750709 0.63423723 0
0.087347366 0.070776016 0.6226365 0
0.15388051 0.067403734 0.63524395 0
0.24873067 0.070070304 0.62760717 1.2441018e-38
0.31186634 0.079677358 0.63921338 0
0.32729754 0.069373511 0.63117296 1.5666755e-38
0.39634547 0.06669043 0.62324876 0
0.076065361 0.08942502 0.63418752 0
0.087361261 0.089848191 0.62585717 0
0.15736707 0.081311271 0.63686478 0
0.24767667 0.089628078 0.62831593 1.2164431e-38
0.32661384 0.090670228 0.63031405 1.4745525e-38
0.39456147 0.086497486 0.62915158 0
0.077049986 0.10980802 0.63334775 0
0.086319491 0.10874009 0.62853587 0
0.12741482 0.11129412 0.63752455 0
0.1469731 0.11395967 0.63418931 0
0.24659099 0.10989896 0.62750918 0
0.31232393 0.10017713 0.63810849 0
0.32742384 0.11029628 0.63051695 1.4561138e-38
0.39414069 0.11086571 0.63020229 0
0.077677466 0.12962237 0.63525003 0
0.086130582 0.1303197 0.63266009 0
0.13033512 0.12872851 0.63909811 0
0.14668073 0.12815921 0.63062149 0
0.24535301 0.12985043 0.62810528 0
0.31572253 0.12559664 0.63488054 0
0.32914275 0.12941888 0.62945205 1.5206147e-38
0.39623567 0.12776417 0.62323183 0
0.077927448 0.14934935 0.63723534 0
0.086820483 0.15079367 0.63628548 0
0.14833161 0.15037747 0.63432783 0
0.24409819 0.14987962 0.62810904 0
0.31316763 0.14134648 0.6375128 0
0.32740721 0.14937457 0.62942261 1.3547705e-38
0.39644176 0.14841759 0.62082112 0
0.07947018 0.16117896 0.63800001 0
0.085889407 0.16568284 0.63731831 0
0.14657924 0.16534543 0.63623345 0
0.23940003 0.1757357 0.63666672 0
0.24316013 0.16931809 0.62852842 0
0.31467655 0.16097857 0.63816905 0
0.32700837 0.16804668 0.63219208 1.363954e-38
0.34017509 0.17445406 0.62165427 1.5669663e-38
0.39070597 0.16984689 0.63938183 0
0.14890024 0.18864752 0.63929647 0
0.23889221 0.19078238 0.63593751 0
0.24270636 0.18973248 0.62628269 0
0.31447589 0.18033087 0.63730514 0
0.32748887 0.18801324 0.63183486 1.3639904e-38
0.34037533 0.19479808 0.62119734 1.5116495e-38
0.39103153 0.18934724 0.63854039 0
0.23838584 0.21007079 0.63335478 0
0.24210168 0.20931186 0.6244483 0
0.31539083 0.20174468 0.63637263 0
0.32794684 0.20805147 0.63122791 1.3640267e-38
0.39129812 0.2092939 0.63752288 0
0.23756038 0.23011503 0.63302708 0
0.24145369 0.22868751 0.62370831 0
0.31550446 0.2212081 0.63652724 0
0.32851022 0.22767107 0.63134116 0
0.39377758 0.22728084 0.6330483 0
0.23725538 0.24639057 0.63116002 0
0.24095024 0.24395332 0.62287498 0
0.3162792 0.24944426 0.63550526 0
0.3287985 0.24846876 0.63017148 0
0.39375123 0.25039181 0.63084567 0
0.31691641 0.26710519 0.63581824 0
0.33023968 0.26773849 0.63088667 0
0.39461198 0.27048743 0.62883043 0
0.31718695 0.28171927 0.63509846 0
0.33270043 0.29083925 0.62897742 0
0.39216074 0.29035854 0.63527995 0
0.31724325 0.30221847 0.63468915 0
0.33123052 0.30887991 0.6296286 0
0.39212856 0.3098903 0.63419199 0
0.27784094 0.33826452 0.63309485 0
0.28481615 0.33503214 0.63319045 0
0.3172527 0.33056611 0.63283145 0
0.33224586 0.32718989 0.62803102 0
0.3607522 0.33747149 0.63966191 0
0.39260137 0.33088994 0.63535649 0
0.27053845 0.35906553 0.63398951 0
0.29004559 0.35447177 0.63274753 0
0.3081753 0.34459937 0.62936056 0
0.3323676 0.3456696 0.62613577 0
0.36144724 0.34555203 0.63629788 0
0.39233211 0.34757215 0.63259041 0
0.27120674 0.3616842 0.63146996 0
0.29571635 0.36464393 0.62308985 0
0.31227818 0.36317861 0.62934202 0
0.34930444 0.36602336 0.62803352 0
0.37647238 0.36790836 0.62741929 0
0.31317568 -0.14180027 0.6514945 1.4001467e-38
0.32193604 -0.14132464 0.64457208 1.4278054e-38
0.3109504 -0.12954727 0.64909071 1.2718666e-38
0.32836628 -0.13043132 0.64624 1.3728486e-38
0.39602655 -0.13482445 0.65326107 0
0.25507966 -0.10285993 0.6498462 0
0.29783902 -0.10677575 0.6494326 0
0.31166738 -0.11193517 0.65406477 1.3547344e-38
0.32332361 -0.10603734 0.64808691 1.5388367e-38
0.39093396 -0.11259714 0.65138102 0
0.25341225 -0.089863241 0.65012515 0
0.29753464 -0.098636903 0.64958203 0
0.30985895 -0.091912344 0.64710522 1.3180725e-38
0.32339978 -0.085873231 0.6484915 1.6125209e-38
0.39115977 -0.091111779 0.65089202 0
0.25109378 -0.070021309 0.64986539 0
0.29820055 -0.069932342 0.65117675 0
0.31308472 -0.071599707 0.64969432 1.5021388e-38
0.32365286 -0.06592916 0.64754522 1.6401795e-38
0.39198077 -0.073518842 0.64738494 0
0.24999037 -0.049906254 0.64902091 0
0.29944283 -0.040458016 0.65292943 0
0.31298181 -0.051037725 0.6513232 1.5389449e-38
0.32416388 -0.046100244 0.64636505 1.6493629e-38
0.39088312 -0.052878171 0.64934224 0
0.24923494 -0.03000699 0.64774507 0
0.2994169 -0.020784564 0.65324658 0
0.31341669 -0.030892914 0.65081853 1.5481283e-38
0.3257708 -0.024089178 0.64837956 1.594117e-38
0.39059001 -0.031587392 0.64792669 0
0.24776915 -0.0099835796 0.64912003 0
0.29938111 -0.0014590323 0.65258807 0
0.31382245 -0.012949655 0.65242761 1.5849341e-38
0.32451418 -0.0059794351 0.64669549 1.6493985e-38
0.39078543 -0.012420863 0.6461311 0
0.010433231 0.011247954 0.65548497 0
0.028955227 0.013423787 0.64420003 0
0.11802956 0.0098215891 0.64538115 0
0.13082793 0.0093870629 0.64046955 0
0.2461971 0.010243146 0.64844441 0
0.29786465 0.012095936 0.65287954 0
0.31157053 0.0085302433 0.65169322 1.5389446e-38
0.32248703 0.010553667 0.64666259 1.6217761e-38
0.39039314 0.0077131838 0.64574379 0
0.016330343 0.025559032 0.65676481 0
0.03101212 0.030064564 0.64959997 0
0.047504678 0.034527685 0.64399993 0
0.11900426 0.029425094 0.64900178 0
0.13173077 0.028847927 0.64311302 0
0.24518384 0.030537905 0.64887923 0
0.29993954 0.022774458 0.65306431 0
0.3126182 0.027424909 0.65409154 1.5757866e-38
0.32317364 0.030732881 0.64515454 1.6125928e-38
0.39001888 0.028107017 0.64385974 0
0.030692188 0.049130619 0.65480894 0
0.050046157 0.050903853 0.64514285 0
0.061754394 0.059508774 0.64000005 0
0.11956321 0.042957686 0.65051526 0
0.12690368 0.051516704 0.6500439 0
0.14473611 0.048026614 0.64067107 0
0.23932108 0.04971404 0.65900004 0
0.24375035 0.049544487 0.64824986 0
0.29973859 0.040574238 0.6539591 0
0.31114426 0.048419487 0.6541068 1.5205411e-38
0.32290995 0.053769313 0.64623821 1.5480562e-38
0.38798404 0.048976943 0.65136218 0
0.033394575 0.069139913 0.65653503 0
0.04964843 0.06974487 0.64772093 0
0.064571433 0.073010758 0.6410417 0
0.12852146 0.070076793 0.65189528 0
0.14557359 0.066800952 0.64221674 0
0.23932108 0.072451472 0.65900004 0
0.24313959 0.069706626 0.6481539 0
0.31100643 0.06764362 0.65146345 1.4007955e-38
0.32411397 0.073580652 0.64702177 1.5572386e-38
0.38968086 0.070027784 0.64477348 0
0.036337573 0.087962545 0.65817654 0
0.049894314 0.089640476 0.65109736 0
0.066153191 0.09070199 0.64277548 0
0.08519084 0.09764652 0.6424669 0
0.13623935 0.087266833 0.65034121 0
0.14877377 0.08913707 0.64565653 0
0.23877341 0.090732753 0.65750003 0
0.24265322 0.089507572 0.6480667 0
0.31129935 0.086338885 0.65419096 1.3731007e-38
0.324752 0.093075261 0.6472168 1.492738e-38
0.38917342 0.090000033 0.64488345 0
0.038152635 0.1028965 0.65900004 0
0.050023101 0.10956523 0.654203 0
0.069098614 0.10752095 0.64977539 0
0.08996997 0.11265666 0.65116668 0
0.11136089 0.11174908 0.64575237 0
0.13223425 0.10992633 0.64972121 0
0.14843261 0.11177751 0.64662087 0
0.23829868 0.1093647 0.65619999 0
0.24233188 0.10984192 0.6455 0
0.3119657 0.10610142 0.65341592 1.326967e-38
0.32553211 0.11267766 0.64612854 1.4282013e-38
0.39040226 0.10798431 0.64104116 0
0.052308936 0.12912412 0.65532732 0
0.070199229 0.12990785 0.64983606 0
0.091748223 0.13126718 0.65381104 0
0.11072209 0.13120107 0.65113497 0
0.12924542 0.12604517 0.6535908 0
0.14839479 0.130566 0.64666146 0
0.238032 0.13138838 0.65326476 0
0.24190675 0.12834379 0.64395654 0
0.29950818 0.13040332 0.65955639 0
0.31077003 0.12714097 0.65249389 1.2072566e-38
0.32538587 0.13286251 0.64538479 1.3636999e-38
0.39056566 0.1285221 0.64052242 0
0.055275217 0.1484172 0.65646672 0
0.07137154 0.15069149 0.65161783 0
0.094377175 0.15191975 0.65156168 0
0.11091763 0.14777228 0.65043503 0
0.13538972 0.15045398 0.64560956 0
0.14525154 0.15007184 0.65043944 0
0.23730879 0.1503461 0.65309089 0
0.24135442 0.14838691 0.6430667 0
0.31295109 0.14634728 0.65191299 1.1979647e-38
0.32713199 0.15632172 0.64828616 1.2162598e-38
0.38691449 0.1494716 0.64961278 0
0.057854664 0.16699153 0.65853846 0
0.073399916 0.17054369 0.65302271 0
0.088010043 0.17297204 0.65227199 0
0.11618336 0.17013861 0.6506142 0
0.13226365 0.17262839 0.64939189 0
0.15275322 0.16968191 0.65179515 0
0.23666626 0.16992155 0.65007699 0
0.24027896 0.1669544 0.64300001 0
0.31260082 0.16678411 0.65338868 0
0.32425684 0.17351948 0.64815533 1.28998e-38
0.38415021 0.17062381 0.65816092 0
0.071857169 0.18944435 0.65083075 0
0.091231197 0.19032702 0.65094775 0
0.11561432 0.18787032 0.65337795 0
0.13243604 0.19172454 0.64942014 0
0.15118226 0.19068848 0.65375614 0
0.23583435 0.18986791 0.6501199 0
0.3115496 0.18781325 0.6541332 0
0.32412782 0.19367996 0.65099806 1.2438463e-38
0.38543075 0.18862827 0.65510732 0
0.073187508 0.20971152 0.65200007 0
0.084799513 0.20873055 0.64891434 0
0.11255163 0.20940658 0.65809351 0
0.12368438 0.21082103 0.65608764 0
0.14635639 0.20887728 0.65492761 0
0.23469682 0.2099151 0.65023088 0
0.31408402 0.20820506 0.65055168 0
0.3246558 0.21444559 0.64971566 1.1885651e-38
0.38697109 0.21206902 0.65108794 0
0.073646121 0.22962295 0.65384316 0
0.08294785 0.22850373 0.65078253 0
0.12603 0.23082125 0.65800428 0
0.14118138 0.22805366 0.65270013 0
0.2329817 0.23017599 0.65013736 0
0.31372264 0.2268589 0.65133518 0
0.32574505 0.23387918 0.64861572 0
0.3879399 0.23149744 0.6492843 0
0.074757561 0.25023234 0.65609753 0
0.082260773 0.2490828 0.65536374 0
0.14374644 0.25496346 0.652614 0
0.23215814 0.24925061 0.64958847 0
0.31147012 0.24818461 0.65071672 0
0.32466707 0.25420558 0.65007091 0
0.38532534 0.2519322 0.65687668 0
0.13286762 0.27499944 0.65868521 0
0.14268169 0.27079391 0.65240514 0
0.23017196 0.26124915 0.65600002 0
0.31370434 0.27000999 0.6520738 0
0.32366353 0.27440077 0.64765567 0
0.38499796 0.27066875 0.65534055 0
0.095067836 0.28117916 0.65769225 0
0.13324594 0.28449947 0.65835315 0
0.14269674 0.28271049 0.65624779 0
0.31274056 0.28641194 0.65186024 0
0.32511178 0.29389235 0.64721745 0
0.38653833 0.29189157 0.65634602 0
0.31361654 0.30602026 0.65187407 0
0.32537994 0.30961746 0.64690089 0
0.38650677 0.31172082 0.6547029 0
0.27559638 0.33462077 0.64550501 0
0.29549697 0.33971414 0.6480056 0
0.31141946 0.32779449 0.65197301 0
0.32275289 0.32881546 0.64542663 0
0.35858876 0.33878866 0.65752333 0
0.38625032 0.33087832 0.65224957 0
0.2764335 0.34321991 0.65951478 0
0.28561664 0.34830081 0.64971101 0
0.31207389 0.35117984 0.65182644 0
0.32375434 0.34739029 0.64140028 0
0.35329682 0.34418976 0.65482938 0
0.38474578 0.34552571 0.65386778 0
0.26547819 0.36272758 0.65097016 0
0.28879982 0.36353728 0.64491177 0
0.3314907 0.36240122 0.64166504 0
0.3457455 0.36339056 0.65067446 0
0.36884415 0.36648315 0.64300722 0
0.30524132 -0.14412265 0.6665628 0
0.29771116 -0.13200653 0.67548239 0
0.30825847 -0.13121334 0.66732568 1.1979656e-38
0.32163221 -0.13074619 0.66033912 1.3637008e-38
0.3849394 -0.12875502 0.67464602 0
0.24941239 -0.10485351 0.66750002 0
0.29821414 -0.11252184 0.67466754 0
0.30770892 -0.10929164 0.6695025 1.3913955e-38
0.38408089 -0.1133194 0.66925043 0
0.247475 -0.090006806 0.66974521 0
0.29820693 -0.09215688 0.67427534 0
0.30836472 -0.088899098 0.66686857 1.4742995e-38
0.38366589 -0.091320306 0.66864872 0
0.24493358 -0.070019349 0.67044914 0
0.29932082 -0.071555778 0.67303908 1.2163691e-38
0.30829844 -0.068142518 0.66742742 1.5480199e-38
0.38406649 -0.071373023 0.66865671 0
0.24438016 -0.049931277 0.66921574 0
0.2982198 -0.056439102 0.66735768 0
0.30618367 -0.047321923 0.67426342 1.4927385e-38
0.38427532 -0.051024832 0.66798198 0
0.23943686 -0.029780703 0.67899996 0
0.24351583 -0.030435387 0.66897863 0
0.29813042 -0.036991328 0.6666674 1.1982181e-38
0.30663487 -0.026697073 0.67319578 1.5295805e-38
0.38376155 -0.0308768 0.66709566 0
-0.028629435 -0.0017159845 0.67633331 0
-0.010067837 -0.0014354778 0.66888887 0
0.23901542 -0.0086001949 0.67855555 0
0.24262798 -0.010104531 0.66772097 0
0.29793814 -0.016652867 0.66705 1.2534633e-38
0.30738744 -0.0089991642 0.67265296 1.5572393e-38
0.38363296 -0.010863528 0.6663661 0
-0.026849125 0.0088854283 0.67515397 0
-0.0091053937 0.0099715423 0.66645581 0
0.0011601506 0.010106015 0.66128576 0
0.23831888 0.010190263 0.67584997 0
0.24200213 0.0094670644 0.66641933 0
0.29403609 0.0071239127 0.67328012 1.1889984e-38
0.30866757 0.012718781 0.67091936 1.5941173e-38
0.37866694 0.0060692355 0.67844695 0
0.38289231 0.010252472 0.67019302 0
-0.02200702 0.020816669 0.67800003 0
-0.0088160541 0.029600384 0.67468339 0
0.008608805 0.031684913 0.66436356 0
0.23805028 0.02996921 0.67417234 0
0.24143213 0.028929498 0.66643751 0
0.29744017 0.026889887 0.67615891 1.3823566e-38
0.30786428 0.030770957 0.66958642 1.5389081e-38
0.38299155 0.030335836 0.66646868 0
-0.0066966917 0.048998844 0.67593181 0
0.010761562 0.049915463 0.66634613 0
0.022046668 0.054538604 0.66140002 0
0.23770644 0.050014973 0.67041194 0
0.24010789 0.049875151 0.66116667 0
0.29821026 0.045759339 0.6737355 1.3639177e-38
0.30832556 0.050267361 0.66839957 1.5112497e-38
0.38314131 0.05055907 0.66477448 0
-0.0037379081 0.069773518 0.67732155 0
0.010266783 0.070095792 0.66988009 0
0.024684284 0.070965141 0.66220844 0
0.23712988 0.070611395 0.67166674 0
0.24004738 0.066873103 0.66100001 0
0.29926705 0.065146789 0.67997658 1.4006155e-38
0.30761051 0.071459785 0.66945678 1.4927384e-38
0.38374141 0.069052674 0.66276234 0
-0.028194126 0.09982878 0.67930835 0
-0.0070632361 0.091930769 0.67552221 0
0.0065028314 0.092414215 0.66946876 0
0.027835732 0.090489715 0.6635192 0
0.1197596 0.09152294 0.66073215 0
0.12362991 0.090339758 0.66261601 0
0.23586486 0.090104334 0.66960973 0
0.30762282 0.091226399 0.67013663 1.437457e-38
0.38337159 0.089991093 0.66149789 0
-0.010222814 0.10820874 0.67572641 0
0.011786742 0.10810253 0.67247176 0
0.029033331 0.10806993 0.67124957 0
0.050532602 0.10823057 0.66700238 0
0.071224123 0.11205457 0.66714066 0
0.089550957 0.10947564 0.66724205 0
0.10850128 0.10780227 0.66203058 0
0.23472719 0.11040252 0.6708864 0
0.29565644 0.1126112 0.66484725 0
0.30811983 0.11140029 0.66889334 1.3821754e-38
0.3842442 0.10941633 0.66125 0
-0.0041275145 0.13581364 0.679941 0
0.014916473 0.13219354 0.67627549 0
0.033320148 0.13273595 0.67015576 0
0.049568467 0.12853551 0.66958547 0
0.072527409 0.13046695 0.67166853 0
0.090606928 0.12653404 0.66926944 0
0.11047027 0.12598318 0.66466802 0
0.23359133 0.12995668 0.66977775 0
0.29618156 0.12936211 0.66497248 0
0.30832398 0.13079616 0.66763735 1.3452614e-38
0.32036203 0.13523407 0.66146076 1.2623929e-38
0.37782663 0.13001767 0.67942083 0
0.38438559 0.12918814 0.66045564 0
0.015681677 0.15020896 0.67857903 0
0.029230528 0.15414135 0.67456692 0
0.049705248 0.1498165 0.67038363 0
0.073997281 0.14877787 0.67292666 0
0.09083882 0.14706102 0.67033398 0
0.10714644 0.15062495 0.66846216 0
0.12694441 0.15014067 0.66185343 0
0.23198406 0.15023354 0.67100012 0
0.29694486 0.14873302 0.67318225 0
0.30872831 0.15139087 0.66760808 1.2531018e-38
0.32074508 0.15742387 0.66061878 1.1977844e-38
0.3793242 0.14829673 0.67445683 0
0.017868422 0.16081581 0.67900002 0
0.030468691 0.16968314 0.67444611 0
0.049459856 0.17311266 0.67138302 0
0.071756989 0.16697043 0.67290282 0
0.089315422 0.17052549 0.67216581 0
0.10720684 0.17050268 0.66947848 0
0.13167715 0.16754554 0.6648218 0
0.23097634 0.17007601 0.66886044 0
0.29770178 0.16397369 0.67247093 0
0.30751508 0.1707073 0.66840202 0
0.32129765 0.17732233 0.66025496 0
0.37798733 0.17118719 0.67960989 0
0.3827022 0.17692304 0.66735697 0
0.033009883 0.18947965 0.67665303 0
0.05520888 0.19063911 0.67105711 0
0.068278603 0.18984549 0.66975999 0
0.085929424 0.19157675 0.66983765 0
0.11024386 0.18941359 0.67168438 0
0.12804276 0.18847004 0.66635484 0
0.142055 0.18157011 0.66076756 0
0.22974043 0.1902166 0.66959566 0
0.29604188 0.18220201 0.66626662 0
0.30939031 0.19259474 0.66775119 0
0.37794104 0.19065493 0.67731714 0
0.38349563 0.19496354 0.6622296 0
0.036575593 0.20762034 0.67826092 0
0.052556071 0.20735452 0.67450845 0
0.066412322 0.21040645 0.66792947 0
0.085665517 0.21018121 0.67246962 0
0.10477656 0.2087608 0.66839832 0
0.12848771 0.20908616 0.66999161 0
0.22826384 0.20998403 0.66889584 0
0.29769725 0.20400402 0.67288005 0
0.30998325 0.20947081 0.6672191 0
0.37777138 0.21113008 0.678204 0
0.038693205 0.2250191 0.67862499 0
0.050898898 0.22985612 0.67294443 0
0.066244982 0.229367 0.66615129 0
0.089488491 0.23178105 0.66899049 0
0.10987478 0.23150824 0.67088938 0
0.12804395 0.22679915 0.6708532 0
0.14459501 0.2291663 0.66089642 0
0.22687213 0.22963107 0.6695416 0
0.29781497 0.22431071 0.67265189 0
0.31063297 0.23203275 0.66624713 0
0.37824357 0.23125151 0.67633718 0
0.055634238 0.24931884 0.67140174 0
0.06550353 0.25172013 0.6670686 0
0.093134254 0.25293285 0.6699276 0
0.10990505 0.2495876 0.67361474 0
0.12944037 0.24887995 0.66848087 0
0.14502223 0.24734557 0.66301572 0
0.22568527 0.25012791 0.6697737 0
0.29810661 0.24455498 0.67233306 0
0.31134182 0.25078624 0.66616291 0
0.37816361 0.2519981 0.67630267 0
0.052339129 0.26869631 0.67066586 0
0.064637914 0.26638752 0.66834813 0
0.090090662 0.27122009 0.66226763 0
0.11100459 0.27469796 0.67172736 0
0.13117129 0.26828316 0.67346942 0
0.14619955 0.27033302 0.66665721 0
0.22459352 0.26311707 0.67085725 0
0.29448676 0.26878214 0.66665733 0
0.30884844 0.26966339 0.66807163 0
0.37891111 0.27264008 0.67554545 0
0.091180764 0.28449082 0.67307466 0
0.11155538 0.28494352 0.66827381 0
0.13190264 0.28406721 0.67225742 0
0.14336455 0.28538814 0.66655117 0
0.29667595 0.28579938 0.67238724 0
0.30860165 0.29033864 0.67072564 0
0.37959489 0.29222864 0.67287874 0
0.29553348 0.30386901 0.6674633 0
0.30860463 0.31025118 0.67092967 0
0.38058946 0.31343269 0.66922063 0
0.2935158 0.33198214 0.6673404 0
0.30973017 0.33044645 0.66771716 0
0.34896278 0.3372511 0.67804837 0
0.37304896 0.33394212 0.67029858 0
0.38472354 0.33839822 0.66126925 0
0.22949222 0.35917231 0.67329109 0
0.25706333 0.35965902 0.66917795 0
0.27238733 0.34359097 0.6703018 0
0.29100841 0.35091481 0.67061549 0
0.30960876 0.3502892 0.67001796 0
0.35091478 0.34500179 0.66683543 0
0.37839073 0.3465026 0.67089194 0
0.24535516 0.36188293 0.66102839 0
0.28230011 0.36042225 0.66565317 0
0.33386338 0.36079973 0.67326379 0
0.35251436 0.36301893 0.67871213 0
0.36178216 0.36432481 0.66069728 0
0.29224047 -0.14371642 0.69096321 0
0.30498335 -0.14154691 0.68475974 0
0.37808773 -0.14165658 0.69287878 0
0.29135129 -0.13138127 0.69120115 0
0.30355954 -0.12749416 0.6886754 0
0.37649947 -0.12996732 0.69072896 0
0.24330811 -0.10540284 0.6886251 0
0.29137379 -0.11160748 0.69103092 0
0.30566114 -0.10201436 0.68831778 1.1792734e-38
0.37654287 -0.10961072 0.68918252 0
0.239399 -0.085963413 0.69571429 0
0.24247219 -0.09095902 0.6883226 0
0.29187435 -0.091725938 0.6898672 0
0.30570167 -0.081744403 0.6874423 1.2438099e-38
0.37640473 -0.090362906 0.68814808 0
0.23821852 -0.067928649 0.69555563 0
0.24143934 -0.070286997 0.68757886 0
0.29260492 -0.071882598 0.68815368 0
0.30547881 -0.061950553 0.68726051 1.2714686e-38
0.37782007 -0.070118733 0.68817943 0
0.23789486 -0.049135484 0.69290328 0
0.24127768 -0.052204959 0.68609095 0
0.27972597 -0.055934004 0.69971168 0
0.29281306 -0.051393062 0.68733329 1.2070764e-38
0.3023794 -0.040733002 0.69216603 1.2253705e-38
0.37719899 -0.050249226 0.68760198 0
0.23785964 -0.029132076 0.69178134 0
0.24019651 -0.039831579 0.68800002 0
0.29080191 -0.031154694 0.69112647 1.1886374e-38
0.30247793 -0.020851709 0.69087183 1.2899436e-38
0.37560925 -0.029701952 0.69246233 0
-0.045408297 -0.0033945777 0.68600005 1.2809795e-38
-0.034826782 -0.0051837433 0.6815334 0
0.23646185 -0.0094895801 0.68912125 0
0.29232958 -0.010854349 0.68920606 1.2439545e-38
0.30243516 -0.0010870742 0.68949866 1.3729552e-38
0.37537801 -0.0092439987 0.68845367 0
-0.044849265 0.0087157907 0.68495995 0
-0.037220355 0.011146843 0.68220013 0
0.23460957 0.0099068172 0.68888575 0
0.29349905 0.011284416 0.68887645 1.3637368e-38
0.3027395 0.017631352 0.69010502 1.4283085e-38
0.37562236 0.01097326 0.68674904 0
-0.043429911 0.029400079 0.69286364 0
-0.029694615 0.029989706 0.68601429 0
-0.017026316 0.034649126 0.68099999 0
0.23355711 0.030068237 0.68721056 0
0.29118615 0.029490549 0.69200492 1.2900163e-38
0.30149692 0.035203367 0.68442529 1.575678e-38
0.37637791 0.030653186 0.6844722 0
-0.04379208 0.050589811 0.68894613 0
-0.029239556 0.050413612 0.6886366 0
-0.015790444 0.052030094 0.68175 0
0.23240037 0.050334789 0.68678063 0
0.29262248 0.051219609 0.6931178 1.2992716e-38
0.30216116 0.054768424 0.68342555 1.5480551e-38
0.37672192 0.050391402 0.68318886 0
-0.041116316 0.068282291 0.69749999 0
-0.02916085 0.070425227 0.69203138 0
-0.013326813 0.069805093 0.68382055 0
0.23193118 0.069614708 0.68637854 0
0.29314384 0.071232468 0.69281578 1.3268941e-38
0.3036716 0.075201839 0.68421602 1.4743343e-38
0.37730902 0.071814552 0.68257785 0
-0.076231472 0.090955757 0.69867402 0
-0.046703439 0.0956394 0.69597971 0
-0.032459177 0.091502875 0.69221801 0
-0.014483548 0.091309428 0.68461883 0
0.0086040851 0.093820065 0.68365324 1.5488158e-38
0.23027289 0.089726143 0.68745011 0
0.29455554 0.089766644 0.69048637 1.2993076e-38
0.30643669 0.099495769 0.68654293 1.3545164e-38
0.37416041 0.091691189 0.69008422 0
-0.060887039 0.10026672 0.69999921 0
-0.046081483 0.10917902 0.69012535 0
-0.026802538 0.1083704 0.69045752 0
-0.007832787 0.10803597 0.68812519 0
0.0086247344 0.10971183 0.68407965 0
0.033599719 0.11025111 0.68196797 0
0.22934185 0.10989973 0.68759483 0
0.29315132 0.11057205 0.69118893 1.2163678e-38
0.30672154 0.11818603 0.68650955 1.2899793e-38
